ply
format ascii 1.0
comment VCGLIB generated
element vertex 1173
property float x
property float y
property float z
property uchar red
property uchar green
property uchar blue
property uchar alpha
element face 0
property list uchar int vertex_indices
end_header
-32.45799 29.57054 217.9218 0 0 132 255 
-32.43484 26.98314 215.9585 0 0 132 255 
-32.38406 10.48628 201.5773 0 0 140 255 
-32.47832 1.171948 193.4894 0 0 132 255 
-32.46586 4.597885 196.5068 0 0 132 255 
-32.46537 5.143534 197.0088 0 0 136 255 
-32.3539 11.451 202.3055 0 0 144 255 
-32.42419 34.40929 219.2818 0 0 144 255 
-32.36108 12.32716 203.1075 0 0 140 255 
-32.42859 21.21295 210.8867 0 0 132 255 
-32.425 31.50576 219.834 0 0 132 255 
-32.35968 9.891235 201.0713 0 0 140 255 
-32.40531 22.61768 212.1013 0 0 132 255 
-32.39843 7.743145 199.3642 0 0 140 255 
-32.41222 28.52171 217.2355 0 0 128 255 
-32.41866 2.450145 194.5116 0 0 136 255 
-32.40044 30.68854 219.2561 0 0 132 255 
-32.42145 17.31809 207.6727 0 0 140 255 
-32.41615 3.078899 195.1572 0 0 132 255 
-32.40361 29.37208 217.833 0 0 132 255 
-32.33545 9.57501 200.8001 0 0 140 255 
-32.36715 24.89501 214.1175 0 0 132 255 
-32.37627 22.31641 211.8565 0 0 132 255 
-32.33826 8.984539 200.3046 0 0 136 255 
-32.38214 7.434856 199.0765 0 0 140 255 
-32.42208 19.22754 209.3275 0 0 140 255 
-32.37978 30.16398 218.6801 0 0 132 255 
-32.35373 7.68961 199.2776 0 0 136 255 
-32.38173 4.165547 196.1474 0 0 132 255 
-32.4008 0.8603245 193.2491 0 0 132 255 
-32.40606 20.21213 210.1048 0 0 136 255 
-32.32406 14.05694 204.7435 0 0 140 255 
-32.3807 5.265671 197.0984 0 0 132 255 
-32.35191 30.11772 218.6134 0 0 132 255 
-32.31307 8.384378 199.8992 0 0 140 255 
-32.32331 26.69983 215.7439 0 0 128 255 
-32.35299 5.757302 197.5467 0 0 136 255 
-32.30746 8.658403 200.1147 0 0 140 255 
-32.32381 23.29219 212.7092 0 0 132 255 
-32.31607 35.9975 218.9007 0 0 136 255 
-32.34932 19.40458 209.4998 0 0 140 255 
-32.27292 7.765821 199.381 0 0 140 255 
-32.30363 30.82827 219.4338 0 0 132 255 
-32.32868 4.473924 196.4512 0 0 132 255 
-32.31035 5.427132 197.2516 0 0 136 255 
-32.29492 30.28213 218.8155 0 0 132 255 
-32.30981 18.07265 208.3187 0 0 136 255 
-32.27061 14.90725 205.5739 0 0 136 255 
-32.28162 6.72764 198.3769 0 0 132 255 
-32.30246 5.487372 197.3415 0 0 136 255 
-32.21366 13.13676 203.8485 0 0 140 255 
-32.26935 34.12953 219.5241 0 0 148 255 
-32.27645 31.6664 219.961 0 0 136 255 
-32.20089 11.90774 202.7939 0 0 140 255 
-32.28489 5.972425 197.7309 0 0 136 255 
-32.19587 11.00456 202.0428 0 0 140 255 
-32.27629 30.10747 218.522 0 0 132 255 
-32.28485 2.167483 194.2899 0 0 140 255 
-32.27044 17.52308 207.885 0 0 140 255 
-32.25457 33.57371 219.691 0 0 144 255 
-32.26218 2.406471 194.5168 0 0 140 255 
-32.25482 28.36692 217.1593 0 0 132 255 
-32.18963 10.33679 201.4842 0 0 140 255 
-32.25393 35.76864 219.0237 0 0 144 255 
-32.22739 25.86716 215.0751 0 0 132 255 
-32.25763 2.775112 194.9502 0 0 132 255 
-32.23047 24.26228 213.5885 0 0 132 255 
-32.23267 26.22593 215.4123 0 0 132 255 
-32.24213 6.215009 197.9764 0 0 136 255 
-32.16985 9.1767 200.4622 0 0 140 255 
-32.24223 32.54833 219.9264 0 0 140 255 
-32.22446 28.83048 217.5745 0 0 128 255 
-32.23106 3.713953 195.7839 0 0 132 255 
-32.21452 15.72572 206.2529 0 0 136 255 
-32.1586 8.870565 200.2378 0 0 136 255 
-32.14573 10.44045 201.619 0 0 140 255 
-32.23251 0.8612117 193.2819 0 0 136 255 
-32.21719 29.62269 218.159 0 0 136 255 
-32.17116 21.48459 211.0997 0 0 140 255 
-32.20232 4.336616 196.2842 0 0 132 255 
-32.16706 22.19457 211.7657 0 0 136 255 
-32.14763 8.108436 199.6627 0 0 136 255 
-32.18861 30.344 218.8837 0 0 132 255 
-32.19186 31.42844 219.955 0 0 128 255 
-32.19072 16.01862 206.5696 0 0 136 255 
-32.1957 31.11654 219.7677 0 0 128 255 
-32.15385 26.96108 215.9594 0 0 136 255 
-32.10385 9.74206 201.0078 0 0 136 255 
-32.16845 27.63852 216.6009 0 0 128 255 
-32.14532 25.92956 215.1594 0 0 132 255 
-32.17074 31.84019 220.0702 0 0 136 255 
-32.16025 6.390673 198.1255 0 0 132 255 
-32.16225 36.41771 218.9232 0 0 132 255 
-32.08646 13.63824 204.3511 0 0 140 255 
-32.16135 5.858921 197.6515 0 0 136 255 
-32.15231 30.27216 218.6598 0 0 132 255 
-32.15728 2.554929 194.7227 0 0 136 255 
-32.14641 28.75386 217.5543 0 0 128 255 
-32.15566 4.60448 196.5461 0 0 132 255 
-32.15564 31.23257 219.8732 0 0 128 255 
-32.13481 30.82791 219.4562 0 0 128 255 
-32.04758 11.5905 202.5937 0 0 140 255 
-32.13526 19.84216 209.8077 0 0 132 255 
-32.12098 27.51959 216.511 0 0 128 255 
-32.09909 7.18084 198.8659 0 0 136 255 
-32.10464 27.50111 216.514 0 0 128 255 
-32.11761 19.40097 209.5218 0 0 136 255 
-32.10129 28.33899 217.2177 0 0 132 255 
-32.12475 0.9283846 193.3711 0 0 132 255 
-32.09153 4.105876 196.1094 0 0 132 255 
-32.07129 22.87069 212.3871 0 0 136 255 
-32.09542 3.217591 195.3087 0 0 136 255 
-32.09329 5.724197 197.5284 0 0 136 255 
-32.06576 23.34569 212.8224 0 0 132 255 
-32.0687 27.24537 216.2567 0 0 132 255 
-32.08678 4.989336 196.8657 0 0 136 255 
-32.07782 2.859715 195.0354 0 0 136 255 
-32.07065 30.37275 218.8261 0 0 132 255 
-31.98924 11.9135 202.8774 0 0 140 255 
-32.06671 2.906498 195.0851 0 0 136 255 
-32.05659 28.62243 217.4731 0 0 128 255 
-32.06648 35.35902 219.3781 0 0 140 255 
-32.00286 8.104839 199.6954 0 0 136 255 
-32.07 1.756744 194.0594 0 0 136 255 
-32.01153 23.13736 212.6268 0 0 136 255 
-32.04192 3.516531 195.6101 0 0 136 255 
-32.03257 27.46907 216.5205 0 0 128 255 
-32.03732 30.18764 218.5096 0 0 132 255 
-31.98928 7.872521 199.5207 0 0 136 255 
-32.0345 28.16427 217.1342 0 0 132 255 
-31.99899 7.384158 199.0337 0 0 132 255 
-31.97362 8.703156 200.169 0 0 136 255 
-31.99068 25.78296 215.0816 0 0 132 255 
-32.006 30.7484 219.346 0 0 128 255 
-32.00708 19.82544 209.8199 0 0 132 255 
-32.01239 32.27829 220.1799 0 0 144 255 
-31.92591 12.34998 203.3007 0 0 136 255 
-31.92059 10.776 201.9511 0 0 140 255 
-31.99717 17.23802 207.7123 0 0 140 255 
-31.99881 31.32333 220.0376 0 0 128 255 
-31.9775 23.83954 213.3438 0 0 128 255 
-31.99659 28.81658 217.7196 0 0 132 255 
-31.98463 30.59712 219.1404 0 0 128 255 
-31.98262 18.90157 209.1069 0 0 136 255 
-31.93443 22.02772 211.6575 0 0 136 255 
-31.97436 2.302483 194.4868 0 0 140 255 
-31.94327 24.49396 213.9012 0 0 132 255 
-31.94743 27.06152 216.1031 0 0 136 255 
-31.96136 27.64809 216.6854 0 0 128 255 
-31.95676 6.078929 197.9014 0 0 136 255 
-31.96455 36.59173 219.0344 0 0 140 255 
-31.95621 30.31871 218.6578 0 0 132 255 
-31.95577 2.384715 194.5929 0 0 140 255 
-31.91862 15.23614 205.844 0 0 136 255 
-31.94024 27.61442 216.6582 0 0 128 255 
-31.94036 31.53701 220.1142 0 0 132 255 
-31.93027 30.46198 218.8717 0 0 132 255 
-31.92151 26.18802 215.4891 0 0 132 255 
-31.84619 11.37576 202.4259 0 0 140 255 
-31.9293 5.307003 197.1514 0 0 136 255 
-31.92083 4.146273 196.1935 0 0 132 255 
-31.88985 14.52206 205.3447 0 0 140 255 
-31.92516 17.9657 208.3152 0 0 136 255 
-31.83908 13.6233 204.3965 0 0 140 255 
-31.90199 16.44144 207.0273 0 0 140 255 
-31.90627 5.922331 197.7532 0 0 136 255 
-31.88503 20.73159 210.5797 0 0 136 255 
-31.91505 33.00357 220.1718 0 0 148 255 
-31.83366 9.386084 200.716 0 0 140 255 
-31.89784 17.70457 208.1528 0 0 140 255 
-31.82821 9.160072 200.5257 0 0 140 255 
-31.87514 28.03185 217.0182 0 0 128 255 
-31.9092 32.15481 220.3186 0 0 140 255 
-31.89215 4.70385 196.6624 0 0 136 255 
-31.88134 28.50981 217.4212 0 0 128 255 
-31.89535 36.09868 219.2725 0 0 140 255 
-31.8607 6.7762 198.5074 0 0 136 255 
-31.78871 11.59233 202.641 0 0 140 255 
-31.87501 35.58961 219.4722 0 0 140 255 
-31.8679 3.651525 195.7872 0 0 132 255 
-31.86044 19.20483 209.3842 0 0 132 255 
-31.88609 0.9588693 193.4745 0 0 132 255 
-31.86056 3.036798 195.2499 0 0 132 255 
-31.83587 25.8182 215.1918 0 0 132 255 
-31.80988 8.172474 199.7758 0 0 136 255 
-31.8511 5.171721 197.0533 0 0 136 255 
-31.85517 5.015363 196.922 0 0 140 255 
-31.82054 22.71255 212.3367 0 0 132 255 
-31.84651 30.4116 218.8275 0 0 132 255 
-31.7886 8.909012 200.3522 0 0 136 255 
-31.81735 25.55661 214.9394 0 0 132 255 
-31.86 30.9315 219.6971 0 0 136 255 
-31.86093 33.34978 220.1762 0 0 144 255 
-31.83537 17.14473 207.6676 0 0 140 255 
-31.84725 29.57725 218.4282 0 0 136 255 
-31.81696 23.92606 213.479 0 0 128 255 
-31.80837 16.17031 206.7692 0 0 136 255 
-31.78159 8.006362 199.6747 0 0 136 255 
-31.81379 27.35609 216.4855 0 0 132 255 
-31.78235 23.04006 212.6367 0 0 132 255 
-31.81005 31.30393 220.0916 0 0 132 255 
-31.71243 11.0228 202.1996 0 0 140 255 
-31.79646 29.06535 218.0015 0 0 132 255 
-31.74796 14.18206 205.0703 0 0 140 255 
-31.80166 34.30527 219.9836 0 0 140 255 
-31.74529 21.65314 211.4232 0 0 132 255 
-31.78644 4.457881 196.5033 0 0 136 255 
-31.75297 26.79324 215.9798 0 0 128 255 
-31.77441 2.605562 194.8788 0 0 136 255 
-31.76673 6.131116 198.0183 0 0 136 255 
-31.76049 27.22619 216.3869 0 0 128 255 
-31.75574 4.067001 196.1593 0 0 132 255 
-31.71896 8.476048 200.0454 0 0 136 255 
-31.74791 15.99608 206.6577 0 0 136 255 
-31.73266 21.12093 210.9447 0 0 136 255 
-31.74622 5.272715 197.1483 0 0 140 255 
-31.66881 10.42198 201.7357 0 0 140 255 
-31.74051 30.33312 218.8123 0 0 132 255 
-31.71765 4.018855 196.1159 0 0 136 255 
-31.74226 31.42889 220.2292 0 0 132 255 
-31.72168 3.440055 195.6124 0 0 136 255 
-31.72143 19.45842 209.6752 0 0 136 255 
-31.6506 10.09899 201.399 0 0 140 255 
-31.70982 27.72981 216.8403 0 0 128 255 
-31.72499 30.81506 219.4494 0 0 140 255 
-31.66808 14.8472 205.6555 0 0 136 255 
-31.71279 35.20893 219.7528 0 0 144 255 
-31.71328 30.75844 219.2595 0 0 136 255 
-31.71302 33.17781 220.3641 0 0 140 255 
-31.62319 9.28749 200.6539 0 0 140 255 
-31.63306 13.67578 204.5602 0 0 136 255 
-31.66495 23.48637 213.1333 0 0 128 255 
-31.69973 35.36777 219.7175 0 0 140 255 
-31.69461 36.21469 219.4345 0 0 136 255 
-31.68983 31.61156 220.338 0 0 132 255 
-31.68126 30.66882 219.1048 0 0 136 255 
-31.66426 5.694171 197.6096 0 0 136 255 
-31.61436 21.50827 211.2767 0 0 140 255 
-31.66656 19.94157 210.1172 0 0 136 255 
-31.66546 30.26663 218.8751 0 0 136 255 
-31.66719 34.21815 220.1324 0 0 144 255 
-31.66116 35.77099 219.6119 0 0 144 255 
-31.58936 14.38159 205.2922 0 0 140 255 
-31.66482 31.12294 220.0037 0 0 144 255 
-31.56019 11.84169 202.9463 0 0 136 255 
-31.64227 31.42232 220.2551 0 0 136 255 
-31.61201 16.44757 207.1021 0 0 140 255 
-31.57627 8.47835 200.0567 0 0 136 255 
-31.64126 29.15568 218.2376 0 0 140 255 
-31.62598 5.00139 196.9743 0 0 136 255 
-31.61989 1.663861 194.0501 0 0 140 255 
-31.60629 18.62809 208.9495 0 0 132 255 
-31.61234 30.43213 218.9636 0 0 136 255 
-31.60208 27.36823 216.6058 0 0 136 255 
-31.60261 4.98374 196.9517 0 0 136 255 
-31.61317 30.9102 219.6214 0 0 144 255 
-31.60465 30.03796 218.8478 0 0 136 255 
-31.56348 25.70975 215.1676 0 0 132 255 
-31.59096 30.58784 219.0969 0 0 140 255 
-31.56118 20.50321 210.5236 0 0 132 255 
-31.58775 30.85715 219.4252 0 0 140 255 
-31.58541 32.82883 220.5791 0 0 136 255 
-31.57727 30.81725 219.2367 0 0 140 255 
-31.49813 9.813972 201.2042 0 0 140 255 
-31.55825 17.93852 208.3929 0 0 136 255 
-31.53007 7.01679 198.791 0 0 136 255 
-31.5596 20.231 210.3352 0 0 132 255 
-31.5511 19.30838 209.6123 0 0 136 255 
-31.57484 29.325 218.4533 0 0 144 255 
-31.53491 23.86502 213.4835 0 0 128 255 
-31.52429 6.388374 198.2204 0 0 136 255 
-31.50994 22.84359 212.5448 0 0 132 255 
-31.54732 33.01529 220.5738 0 0 136 255 
-31.4542 12.97611 203.8963 0 0 140 255 
-31.54606 29.84467 218.8007 0 0 140 255 
-31.50461 15.84978 206.5918 0 0 136 255 
-31.439 10.71854 202.0214 0 0 140 255 
-31.52099 32.16733 220.6067 0 0 136 255 
-31.52177 28.78421 217.9345 0 0 140 255 
-31.48087 25.3193 214.7088 0 0 136 255 
-31.50885 28.99944 218.1163 0 0 140 255 
-31.46851 6.791877 198.6103 0 0 136 255 
-31.4767 2.208056 194.4851 0 0 144 255 
-31.49362 31.73846 220.489 0 0 132 255 
-31.50073 30.95965 219.6011 0 0 144 255 
-31.46984 3.406789 195.6295 0 0 136 255 
-31.47252 4.640757 196.6842 0 0 136 255 
-31.48062 29.15557 218.2871 0 0 144 255 
-31.44999 27.16896 216.4199 0 0 128 255 
-31.42783 21.10023 211.0255 0 0 132 255 
-31.47235 30.92521 219.3901 0 0 144 255 
-31.4553 31.58368 220.3908 0 0 136 255 
-31.45318 30.86698 219.2204 0 0 140 255 
-31.44264 35.17424 220.0101 0 0 140 255 
-31.40044 15.26433 206.0619 0 0 132 255 
-31.43668 29.97109 218.9462 0 0 140 255 
-31.34283 13.37305 204.2923 0 0 140 255 
-31.34226 10.42696 201.8326 0 0 136 255 
-31.39734 5.510622 197.421 0 0 140 255 
-31.33806 10.1839 201.5826 0 0 136 255 
-31.40473 18.03011 208.5325 0 0 140 255 
-31.41763 31.14614 219.9571 0 0 144 255 
-31.42693 29.47764 218.5995 0 0 144 255 
-31.33523 8.899747 200.4365 0 0 136 255 
-31.36885 23.63979 213.3164 0 0 128 255 
-31.37312 20.82905 210.7632 0 0 136 255 
-31.37731 20.46766 210.5256 0 0 132 255 
-31.37726 4.772505 196.7553 0 0 144 255 
-31.33249 14.47601 205.4468 0 0 136 255 
-31.36153 16.35851 207.1204 0 0 140 255 
-31.37707 30.32161 219.1353 0 0 140 255 
-31.37649 32.12541 220.7066 0 0 132 255 
-31.33211 24.72032 214.2631 0 0 132 255 
-31.37606 30.94559 219.3946 0 0 144 255 
-31.26897 12.81549 203.8177 0 0 140 255 
-31.38938 36.32736 219.6386 0 0 140 255 
-31.33013 6.55033 198.4054 0 0 136 255 
-31.34974 18.96964 209.3588 0 0 136 255 
-31.3215 25.59942 215.1264 0 0 132 255 
-31.35577 31.72261 220.529 0 0 136 255 
-31.29367 14.15399 205.1465 0 0 136 255 
-31.33498 18.46921 208.8966 0 0 136 255 
-31.32765 17.7217 208.3111 0 0 140 255 
-31.32383 31.3462 220.1431 0 0 136 255 
-31.32848 34.36027 220.3992 0 0 136 255 
-31.29393 25.94587 215.428 0 0 132 255 
-31.3043 5.829438 197.7434 0 0 140 255 
-31.31359 30.74825 219.2616 0 0 140 255 
-31.27236 23.91007 213.5943 0 0 128 255 
-31.29063 16.67042 207.3974 0 0 140 255 
-31.31492 35.68098 219.9436 0 0 136 255 
-31.29273 19.49263 209.8244 0 0 136 255 
-31.28482 27.30974 216.6282 0 0 136 255 
-31.29549 31.17866 219.9495 0 0 144 255 
-31.28723 1.648575 194.1509 0 0 136 255 
-31.28006 31.45406 220.2648 0 0 136 255 
-31.18801 11.58647 202.8256 0 0 136 255 
-31.27209 17.0554 207.7523 0 0 140 255 
-31.20443 9.653242 201.1545 0 0 136 255 
-31.21281 7.73345 199.5155 0 0 132 255 
-31.25951 30.49666 219.2805 0 0 140 255 
-31.24631 3.245009 195.5553 0 0 136 255 
-31.21413 7.430472 199.2522 0 0 136 255 
-31.23837 2.523303 194.9136 0 0 136 255 
-31.23432 26.26735 215.7404 0 0 132 255 
-31.23576 2.02381 194.4208 0 0 140 255 
-31.25282 35.09618 220.2145 0 0 140 255 
-31.23266 31.92755 220.6449 0 0 132 255 
-31.23645 30.95481 219.4166 0 0 144 255 
-31.22725 32.3026 220.8366 0 0 132 255 
-31.21022 17.4321 208.0948 0 0 140 255 
-31.20614 4.331366 196.5006 0 0 136 255 
-31.1964 3.61717 195.9387 0 0 132 255 
-31.20219 28.13462 217.4021 0 0 136 255 
-31.16743 24.19701 213.8645 0 0 128 255 
-31.18439 32.47802 220.9354 0 0 132 255 
-31.09792 13.30209 204.2985 0 0 136 255 
-31.19811 1.137576 193.731 0 0 136 255 
-31.16262 26.97878 216.3277 0 0 132 255 
-31.16504 19.16384 209.5275 0 0 132 255 
-31.10414 13.97173 205.0216 0 0 136 255 
-31.15393 18.5281 208.9618 0 0 132 255 
-31.1491 30.45896 219.3332 0 0 140 255 
-31.12921 25.67677 215.2874 0 0 136 255 
-31.14012 20.21242 210.3515 0 0 132 255 
-31.11647 25.20612 214.7489 0 0 132 255 
-31.12926 5.123052 197.1304 0 0 140 255 
-31.08528 14.17554 205.2314 0 0 136 255 
-31.13788 29.60575 218.7469 0 0 140 255 
-31.1292 33.2464 220.9198 0 0 132 255 
-31.04097 10.84858 202.2274 0 0 136 255 
-31.10274 26.28603 215.8495 0 0 140 255 
-31.12021 34.54926 220.5341 0 0 136 255 
-31.11019 30.60042 219.415 0 0 140 255 
-31.09317 2.732505 195.1562 0 0 136 255 
-31.02146 11.14191 202.4748 0 0 136 255 
-31.08643 17.89843 208.4798 0 0 136 255 
-31.06246 24.68905 214.3146 0 0 128 255 
-31.0828 2.193228 194.6025 0 0 140 255 
-31.09538 32.08345 220.7923 0 0 132 255 
-31.09956 32.24963 220.9025 0 0 132 255 
-31.08114 30.21072 219.2673 0 0 140 255 
-31.08245 34.06963 220.7217 0 0 132 255 
-31.08308 31.05777 219.5713 0 0 144 255 
-31.05487 5.58255 197.5352 0 0 140 255 
-31.05664 18.13848 208.7018 0 0 136 255 
-31.05255 2.542051 194.9752 0 0 136 255 
-31.06748 31.92661 220.6827 0 0 132 255 
-31.04115 26.724 216.1836 0 0 136 255 
-31.03361 4.920302 196.9719 0 0 140 255 
-31.03532 2.36343 194.7927 0 0 136 255 
-31.02814 15.58745 206.4977 0 0 136 255 
-31.02059 20.42251 210.5186 0 0 136 255 
-31.03951 31.01973 219.5257 0 0 144 255 
-31.03154 28.71928 218.0045 0 0 140 255 
-30.9606 9.043695 200.6391 0 0 136 255 
-31.03208 1.742902 194.2399 0 0 140 255 
-31.02486 1.402406 193.9644 0 0 140 255 
-30.95967 8.257565 199.972 0 0 136 255 
-30.97279 23.02051 212.7567 0 0 136 255 
-30.92412 11.5132 202.8044 0 0 136 255 
-31.00336 19.86974 210.109 0 0 132 255 
-30.99029 16.65222 207.4477 0 0 140 255 
-30.97561 3.954931 196.2124 0 0 136 255 
-30.99017 29.99453 219.1145 0 0 140 255 
-30.97573 5.065749 197.1033 0 0 140 255 
-30.92831 13.68838 204.7764 0 0 132 255 
-30.96374 25.81549 215.4421 0 0 136 255 
-30.96783 31.50661 220.2218 0 0 136 255 
-30.96654 30.93825 219.5947 0 0 144 255 
-30.89472 10.27309 201.7703 0 0 136 255 
-30.9539 30.51854 219.4912 0 0 140 255 
-30.91935 31.33165 219.6803 0 0 128 255 
-30.92507 25.06882 214.6762 0 0 132 255 
-30.9494 32.06844 220.835 0 0 132 255 
-30.86013 11.10299 202.458 0 0 136 255 
-30.92346 18.48908 208.972 0 0 132 255 
-30.91635 31.46667 220.0535 0 0 136 255 
-30.92218 2.066883 194.4847 0 0 144 255 
-30.98092 36.42621 219.9337 0 0 136 255 
-30.96025 35.17967 220.4355 0 0 136 255 
-30.87165 14.09273 205.2254 0 0 136 255 
-30.82823 13.10072 204.1986 0 0 136 255 
-30.92086 32.20203 220.9478 0 0 132 255 
-30.90682 19.89395 210.1633 0 0 132 255 
-30.90355 31.61358 220.3976 0 0 136 255 
-30.90321 33.42301 221.0646 0 0 132 255 
-30.90466 33.971 220.9261 0 0 132 255 
-30.87112 25.4722 215.1325 0 0 132 255 
-30.86911 25.07574 214.6608 0 0 132 255 
-30.81686 8.921674 200.5847 0 0 136 255 
-30.86612 31.54099 220.2125 0 0 136 255 
-30.84626 6.603002 198.5354 0 0 136 255 
-30.8737 30.85443 219.6741 0 0 144 255 
-30.84442 4.201185 196.4224 0 0 140 255 
-30.83768 3.789658 196.1035 0 0 136 255 
-30.85938 29.05206 218.3167 0 0 140 255 
-30.85098 28.30996 217.5989 0 0 132 255 
-30.83506 24.44038 214.0732 0 0 132 255 
-30.85676 27.66885 217.0962 0 0 140 255 
-30.85186 1.862278 194.3714 0 0 140 255 
-30.87601 34.46076 220.781 0 0 136 255 
-30.82644 6.109285 198.1303 0 0 136 255 
-30.79322 13.88286 205.0342 0 0 136 255 
-30.74651 12.94994 204.0754 0 0 136 255 
-30.83981 32.76421 221.2451 0 0 132 255 
-30.82414 28.08097 217.4301 0 0 136 255 
-30.81411 25.9925 215.5783 0 0 132 255 
-30.79458 5.120565 197.1845 0 0 140 255 
-30.77616 22.97213 212.7669 0 0 136 255 
-30.80981 31.10202 219.76 0 0 144 255 
-30.77901 16.28428 207.2186 0 0 144 255 
-30.76377 3.244082 195.6464 0 0 136 255 
-30.74748 21.32892 211.2451 0 0 148 255 
-30.79065 16.88078 207.7522 0 0 144 255 
-30.79416 31.64234 220.3913 0 0 136 255 
-30.76527 15.84702 206.8231 0 0 140 255 
-30.78075 30.48525 219.5783 0 0 140 255 
-30.74592 3.024808 195.5517 0 0 128 255 
-30.73641 15.12946 206.0967 0 0 136 255 
-30.81546 35.85849 220.2783 0 0 140 255 
-30.75842 1.700853 194.2524 0 0 140 255 
-30.71974 7.379717 199.3545 0 0 132 255 
-30.7355 26.62332 216.1084 0 0 128 255 
-30.73406 25.84925 215.4724 0 0 132 255 
-30.66513 11.55238 202.9207 0 0 132 255 
-30.71536 15.57501 206.5686 0 0 136 255 
-30.70472 4.451798 196.6767 0 0 136 255 
-30.69878 1.813148 194.5001 0 0 128 255 
-30.67699 8.649264 200.4138 0 0 132 255 
-30.7309 1.193728 193.8669 0 0 136 255 
-30.69838 25.39021 215.0029 0 0 132 255 
-30.64366 10.49158 202.0507 0 0 136 255 
-30.67786 3.115472 195.5561 0 0 136 255 
-30.71509 31.01735 219.8357 0 0 144 255 
-30.71439 31.90588 220.6895 0 0 132 255 
-30.68091 25.23155 214.8223 0 0 132 255 
-30.71911 33.53441 221.202 0 0 136 255 
-30.7061 32.3373 221.1406 0 0 132 255 
-30.671 4.686039 196.8791 0 0 136 255 
-30.66574 25.04759 214.6574 0 0 132 255 
-30.67033 19.20266 209.6825 0 0 132 255 
-30.71646 36.4799 220.0764 0 0 140 255 
-30.67797 30.74615 219.8034 0 0 148 255 
-30.67252 31.69441 220.3568 0 0 136 255 
-30.60935 14.1147 205.294 0 0 136 255 
-30.65097 26.11594 215.7436 0 0 132 255 
-30.59294 10.07971 201.7045 0 0 136 255 
-30.64643 1.569541 194.1916 0 0 136 255 
-30.58967 10.34137 201.9371 0 0 136 255 
-30.64605 31.654 220.1599 0 0 140 255 
-30.63254 25.76437 215.4487 0 0 132 255 
-30.6555 32.9352 221.3625 0 0 136 255 
-30.65572 32.66797 221.3637 0 0 136 255 
-30.60995 3.725463 196.1739 0 0 132 255 
-30.62839 31.62528 220.0475 0 0 140 255 
-30.62833 31.28442 219.9105 0 0 144 255 
-30.59807 6.124613 198.2313 0 0 132 255 
-30.60273 31.48001 219.9709 0 0 144 255 
-30.58083 7.12087 199.1618 0 0 132 255 
-30.59373 28.93738 218.2822 0 0 140 255 
-30.6233 34.23463 221.0391 0 0 144 255 
-30.59999 32.17609 221.036 0 0 136 255 
-30.57441 19.72381 210.1449 0 0 132 255 
-30.56087 5.023885 197.2129 0 0 136 255 
-30.54911 16.45656 207.424 0 0 144 255 
-30.53973 24.57442 214.2204 0 0 136 255 
-30.544 23.08119 212.9323 0 0 136 255 
-30.5512 5.836174 197.9983 0 0 136 255 
-30.5819 33.38423 221.3385 0 0 140 255 
-30.55743 31.17124 219.9898 0 0 148 255 
-30.55682 31.73794 220.3359 0 0 140 255 
-30.57484 35.25552 220.6832 0 0 144 255 
-30.52818 25.65886 215.3947 0 0 132 255 
-30.52338 30.04806 219.2723 0 0 140 255 
-30.53583 16.7669 207.7515 0 0 148 255 
-30.5451 32.37206 221.2259 0 0 132 255 
-30.4948 3.231178 195.7406 0 0 132 255 
-30.50497 1.750925 194.3467 0 0 140 255 
-30.51386 31.69448 220.1373 0 0 140 255 
-30.49564 20.01721 210.3485 0 0 132 255 
-30.50369 30.90601 219.9857 0 0 148 255 
-30.52697 34.58487 220.9683 0 0 144 255 
-30.40635 10.6383 202.1688 0 0 136 255 
-30.47917 30.28664 219.5004 0 0 144 255 
-30.50859 33.24466 221.4274 0 0 140 255 
-30.46652 25.717 215.4664 0 0 136 255 
-30.4691 31.48054 220.0089 0 0 144 255 
-30.41268 8.759434 200.5649 0 0 132 255 
-30.43157 3.404617 195.9268 0 0 132 255 
-30.39437 10.2554 201.9167 0 0 136 255 
-30.44485 17.00603 207.9547 0 0 148 255 
-30.42303 3.254493 195.7964 0 0 132 255 
-30.43981 28.08347 217.5417 0 0 140 255 
-30.42488 5.702323 197.8559 0 0 136 255 
-30.40567 22.35975 212.3263 0 0 136 255 
-30.41 23.29584 213.154 0 0 136 255 
-30.44662 32.85073 221.5073 0 0 136 255 
-30.43742 31.98836 220.8307 0 0 132 255 
-30.39518 6.980041 199.041 0 0 132 255 
-30.38518 3.953785 196.3999 0 0 132 255 
-30.37355 14.7511 205.9274 0 0 136 255 
-30.33965 11.0134 202.5137 0 0 136 255 
-30.38775 19.38735 209.8768 0 0 132 255 
-30.39969 28.62406 218.0833 0 0 144 255 
-30.38686 25.66404 215.443 0 0 136 255 
-30.39134 31.37807 220.0845 0 0 144 255 
-30.40975 31.91949 220.721 0 0 136 255 
-30.40378 31.81044 220.2977 0 0 140 255 
-30.32284 9.900581 201.5992 0 0 136 255 
-30.39515 32.27295 221.1823 0 0 136 255 
-30.38548 35.93865 220.4843 0 0 136 255 
-30.34648 16.22133 207.2599 0 0 144 255 
-30.31631 9.512852 201.2776 0 0 132 255 
-30.37247 31.67484 220.1755 0 0 144 255 
-30.34109 15.69746 206.8211 0 0 140 255 
-30.34431 18.3555 209.0261 0 0 136 255 
-30.26558 12.8879 204.1485 0 0 136 255 
-30.33654 29.3738 218.7575 0 0 144 255 
-30.30067 3.228785 195.8344 0 0 128 255 
-30.35699 34.69555 221.0329 0 0 144 255 
-30.29187 3.782502 196.2619 0 0 132 255 
-30.25528 10.05979 201.7697 0 0 132 255 
-30.33642 33.74872 221.3779 0 0 144 255 
-30.27275 22.7927 212.7206 0 0 136 255 
-30.32825 33.43073 221.4743 0 0 140 255 
-30.27358 24.18976 213.9597 0 0 136 255 
-30.29223 31.01055 220.1506 0 0 148 255 
-30.28019 1.746926 194.3903 0 0 140 255 
-30.2322 9.177632 200.9656 0 0 132 255 
-30.2928 32.19599 221.1031 0 0 132 255 
-30.28416 32.03717 220.8865 0 0 132 255 
-30.21498 8.907633 200.7522 0 0 132 255 
-30.25886 17.53553 208.4464 0 0 144 255 
-30.2516 31.06525 220.1732 0 0 148 255 
-30.22987 6.687086 198.7729 0 0 132 255 
-30.23512 26.37243 216.0612 0 0 136 255 
-30.22001 15.91615 207.0261 0 0 140 255 
-30.19779 14.46631 205.7402 0 0 140 255 
-30.21759 3.264006 195.8283 0 0 132 255 
-30.21741 5.268332 197.4819 0 0 140 255 
-30.21426 4.882876 197.1454 0 0 140 255 
-30.21535 28.09063 217.5876 0 0 136 255 
-30.14109 11.63724 203.0971 0 0 136 255 
-30.18227 5.300786 197.659 0 0 128 255 
-30.20226 1.859622 194.5042 0 0 140 255 
-30.21073 30.84287 220.0973 0 0 148 255 
-30.17336 16.36988 207.4549 0 0 144 255 
-30.18728 25.53162 215.3996 0 0 136 255 
-30.21443 33.4923 221.51 0 0 140 255 
-30.18298 1.618855 194.2984 0 0 140 255 
-30.20419 34.12686 221.3354 0 0 144 255 
-30.18376 31.6206 220.2365 0 0 140 255 
-30.15003 23.64517 213.5165 0 0 136 255 
-30.12902 21.60274 211.7688 0 0 136 255 
-30.08549 10.72208 202.3096 0 0 136 255 
-30.14721 25.84712 215.6423 0 0 136 255 
-30.13883 1.896423 194.5319 0 0 144 255 
-30.13099 25.08691 214.8409 0 0 132 255 
-30.07377 12.62665 204.0259 0 0 136 255 
-30.1341 25.68648 215.5339 0 0 136 255 
-30.13805 27.92905 217.4925 0 0 140 255 
-30.06757 13.40617 204.747 0 0 132 255 
-30.13512 31.2459 220.2702 0 0 144 255 
-30.09819 15.67651 206.86 0 0 140 255 
-30.10787 24.87087 214.6599 0 0 132 255 
-30.10844 25.37343 215.1879 0 0 132 255 
-30.09702 4.60825 196.9387 0 0 140 255 
-30.11571 31.01093 220.222 0 0 148 255 
-30.10348 25.53792 215.4017 0 0 136 255 
-30.0856 7.302771 199.4519 0 0 132 255 
-30.08051 2.027473 194.6623 0 0 140 255 
-30.11583 31.85013 220.338 0 0 140 255 
-30.07969 5.004054 197.2904 0 0 140 255 
-30.05337 15.2464 206.4591 0 0 140 255 
-30.09484 32.70583 221.6079 0 0 136 255 
-30.05181 16.48757 207.5895 0 0 144 255 
-30.02381 8.968108 200.8223 0 0 132 255 
-30.04628 24.61937 214.4233 0 0 132 255 
-30.03341 15.75546 206.9474 0 0 140 255 
-30.03323 7.49068 199.6348 0 0 132 255 
-30.07163 32.07932 220.8972 0 0 132 255 
-30.04285 26.5703 216.2679 0 0 132 255 
-30.04616 30.20438 219.5853 0 0 148 255 
-30.02377 5.64868 197.8967 0 0 140 255 
-30.02308 29.89906 219.3297 0 0 148 255 
-30.03655 33.57976 221.5932 0 0 140 255 
-29.94044 11.73147 203.2401 0 0 132 255 
-29.9754 3.530955 196.147 0 0 132 255 
-29.96865 2.141447 194.8905 0 0 128 255 
-29.95699 8.634057 200.5977 0 0 132 255 
-29.92847 13.54247 204.944 0 0 136 255 
-29.96063 6.844225 198.985 0 0 132 255 
-29.94028 9.331533 201.2153 0 0 132 255 
-29.99103 30.66507 220.0224 0 0 152 255 
-29.94882 6.26533 198.4477 0 0 136 255 
-29.96491 28.4139 218.0365 0 0 148 255 
-29.90795 10.41215 202.1621 0 0 136 255 
-29.94454 17.16951 208.2332 0 0 148 255 
-29.94517 24.33175 214.1674 0 0 136 255 
-29.95435 25.53317 215.4131 0 0 136 255 
-29.92763 2.010239 194.683 0 0 140 255 
-29.91372 15.44495 206.6623 0 0 140 255 
-29.93288 24.01827 213.8866 0 0 136 255 
-29.95431 32.12382 220.8888 0 0 132 255 
-29.9559 33.27372 221.7303 0 0 140 255 
-29.94298 27.69675 217.3638 0 0 140 255 
-29.95368 35.45911 220.8987 0 0 144 255 
-29.94429 36.25525 220.5786 0 0 144 255 
-29.93925 32.47118 221.4185 0 0 136 255 
-29.86239 21.12146 211.3939 0 0 136 255 
-29.87686 15.60921 206.8375 0 0 140 255 
-29.88832 4.817006 197.1738 0 0 140 255 
-29.92629 30.39989 219.8298 0 0 152 255 
-29.87235 3.118288 195.7567 0 0 136 255 
-29.86007 15.26179 206.5258 0 0 140 255 
-29.91282 36.53857 220.4987 0 0 144 255 
-29.87642 23.1141 213.1549 0 0 132 255 
-29.87213 25.20156 214.99 0 0 132 255 
-29.8995 31.57305 220.4413 0 0 144 255 
-29.88103 31.14729 220.3841 0 0 148 255 
-29.854 16.89211 208.0017 0 0 148 255 
-29.88576 29.13998 218.7551 0 0 152 255 
-29.80766 14.04462 205.4837 0 0 140 255 
-29.83701 7.306166 199.5083 0 0 132 255 
-29.82305 2.13277 194.8284 0 0 140 255 
-29.81798 18.60011 209.3974 0 0 136 255 
-29.81918 5.085018 197.442 0 0 136 255 
-29.81445 6.683281 198.8672 0 0 136 255 
-29.79059 3.070057 195.7076 0 0 136 255 
-29.84733 33.24163 221.8008 0 0 140 255 
-29.7692 2.972128 195.6137 0 0 140 255 
-29.83633 33.78763 221.6804 0 0 144 255 
-29.77974 7.144408 199.3705 0 0 132 255 
-29.75129 9.513096 201.4104 0 0 132 255 
-29.80101 32.16642 220.8621 0 0 132 255 
-29.75064 5.169697 197.6415 0 0 128 255 
-29.7952 31.88542 220.4635 0 0 140 255 
-29.75566 5.921174 198.2161 0 0 136 255 
-29.80894 34.6185 221.3649 0 0 140 255 
-29.73115 21.70587 211.9488 0 0 136 255 
-29.73277 2.212877 194.9133 0 0 140 255 
-29.73709 7.905433 200.017 0 0 132 255 
-29.72671 4.220715 196.7178 0 0 136 255 
-29.68922 10.73083 202.4534 0 0 132 255 
-29.7041 21.40822 211.7235 0 0 132 255 
-29.72034 24.98975 214.8698 0 0 132 255 
-29.70861 5.066765 197.4516 0 0 136 255 
-29.71255 24.35377 214.2626 0 0 132 255 
-29.72444 1.034847 193.9267 0 0 140 255 
-29.75928 33.4256 221.8216 0 0 144 255 
-29.71137 5.626719 197.9597 0 0 136 255 
-29.74765 31.96819 220.5205 0 0 140 255 
-29.69431 6.952946 199.1914 0 0 132 255 
-29.67562 21.5769 211.8618 0 0 136 255 
-29.68732 7.565785 199.799 0 0 132 255 
-29.67384 3.448394 196.0671 0 0 136 255 
-29.73837 32.95967 221.8486 0 0 140 255 
-29.67746 22.17753 212.3667 0 0 136 255 
-29.66973 9.263773 201.2403 0 0 132 255 
-29.71266 27.35632 217.1063 0 0 140 255 
-29.69974 25.67125 215.6111 0 0 136 255 
-29.66136 3.961799 196.5059 0 0 136 255 
-29.63863 11.35845 203.0419 0 0 132 255 
-29.71929 32.21339 221.0896 0 0 136 255 
-29.70932 32.17507 220.8451 0 0 136 255 
-29.63448 9.900995 201.7961 0 0 132 255 
-29.69609 32.11412 220.6621 0 0 136 255 
-29.63299 21.94835 212.2005 0 0 132 255 
-29.6375 19.57037 210.2188 0 0 132 255 
-29.63366 4.950466 197.3207 0 0 140 255 
-29.61711 15.11377 206.4107 0 0 136 255 
-29.61475 5.099836 197.4763 0 0 140 255 
-29.64885 31.31108 220.536 0 0 144 255 
-29.63019 25.37833 215.3786 0 0 136 255 
-29.59252 8.526341 200.591 0 0 132 255 
-29.58735 8.666443 200.7332 0 0 132 255 
-29.575 16.21441 207.4066 0 0 140 255 
-29.54322 10.78219 202.5624 0 0 132 255 
-29.55088 21.31389 211.6476 0 0 136 255 
-29.56091 8.781857 200.8415 0 0 132 255 
-29.56578 16.10353 207.2618 0 0 140 255 
-29.62401 32.3277 221.3527 0 0 136 255 
-29.55412 21.67882 211.9697 0 0 136 255 
-29.62343 32.26754 221.27 0 0 140 255 
-29.55773 6.798213 199.0529 0 0 132 255 
-29.54619 18.64569 209.476 0 0 136 255 
-29.55348 16.68073 207.8372 0 0 140 255 
-29.6104 33.48296 221.8799 0 0 148 255 
-29.53541 2.680774 195.4132 0 0 140 255 
-29.59989 32.10445 220.6826 0 0 136 255 
-29.6033 33.19876 221.9583 0 0 148 255 
-29.5017 11.13745 202.8816 0 0 132 255 
-29.51839 21.91216 212.1958 0 0 132 255 
-29.5178 4.187565 196.7044 0 0 140 255 
-29.50531 15.16848 206.5017 0 0 136 255 
-29.51203 21.36862 211.8027 0 0 128 255 
-29.56163 36.4806 220.7366 0 0 140 255 
-29.49393 2.265991 195.0013 0 0 144 255 
-29.51758 1.325188 194.1879 0 0 144 255 
-29.50127 17.89362 208.9141 0 0 140 255 
-29.47337 15.58132 206.8498 0 0 132 255 
-29.527 31.52645 220.6417 0 0 140 255 
-29.45841 2.928656 195.603 0 0 140 255 
-29.48173 23.29912 213.4135 0 0 132 255 
-29.5245 32.54501 221.6651 0 0 140 255 
-29.50685 31.60092 220.6631 0 0 140 255 
-29.41678 12.57066 204.1465 0 0 132 255 
-29.44007 20.67188 211.115 0 0 136 255 
-29.44074 4.497324 196.9512 0 0 144 255 
-29.50171 32.22846 220.9715 0 0 140 255 
-29.40898 21.0518 211.4311 0 0 136 255 
-29.42979 17.02328 208.1259 0 0 140 255 
-29.42087 5.063671 197.4748 0 0 140 255 
-29.40112 15.3648 206.6725 0 0 136 255 
-29.46253 28.80926 218.5475 0 0 152 255 
-29.46221 32.10225 220.6792 0 0 136 255 
-29.38598 21.16436 211.5755 0 0 132 255 
-29.40001 6.585037 198.8961 0 0 132 255 
-29.45271 33.76018 221.8762 0 0 148 255 
-29.36554 16.28038 207.4854 0 0 136 255 
-29.38547 5.097658 197.5202 0 0 140 255 
-29.33632 11.99634 203.6846 0 0 132 255 
-29.38486 22.90727 213.1061 0 0 132 255 
-29.3604 9.063786 201.0928 0 0 132 255 
-29.43559 32.62588 221.8424 0 0 144 255 
-29.33405 13.72913 205.2386 0 0 136 255 
-29.42055 33.47544 221.9873 0 0 148 255 
-29.36777 24.56948 214.6029 0 0 128 255 
-29.30609 10.96401 202.7743 0 0 132 255 
-29.32737 2.723346 195.4565 0 0 140 255 
-29.32163 2.616987 195.3793 0 0 140 255 
-29.374 31.4385 220.7076 0 0 144 255 
-29.33269 22.30404 212.5807 0 0 132 255 
-29.38306 32.21848 220.858 0 0 140 255 
-29.29895 15.569 206.886 0 0 136 255 
-29.31734 6.868217 199.1929 0 0 132 255 
-29.37137 34.30428 221.6648 0 0 144 255 
-29.36792 32.49839 221.7334 0 0 144 255 
-29.30436 4.669173 197.125 0 0 144 255 
-29.2984 4.518522 196.9866 0 0 144 255 
-29.25561 12.65461 204.261 0 0 136 255 
-29.27689 8.402553 200.5202 0 0 132 255 
-29.33761 31.89805 220.7951 0 0 140 255 
-29.26835 2.825341 195.5565 0 0 140 255 
-29.29379 24.19411 214.2586 0 0 128 255 
-29.25991 9.460359 201.4891 0 0 132 255 
-29.32836 32.03267 220.7863 0 0 140 255 
-29.32522 29.94314 219.5772 0 0 152 255 
-29.27575 7.149398 199.5081 0 0 132 255 
-29.27184 5.161243 197.5977 0 0 140 255 
-29.25265 22.00257 212.3308 0 0 136 255 
-29.27831 35.93734 221.1087 0 0 140 255 
-29.30154 32.82134 222.0091 0 0 144 255 
-29.23771 22.28607 212.5843 0 0 132 255 
-29.21719 8.56647 200.6906 0 0 132 255 
-29.20095 15.54324 206.8931 0 0 136 255 
-29.21217 5.914282 198.3004 0 0 136 255 
-29.20914 21.70721 212.0847 0 0 136 255 
-29.19647 7.54546 199.9078 0 0 136 255 
-29.23861 33.80743 221.9401 0 0 144 255 
-29.17481 3.191331 195.9032 0 0 140 255 
-29.18059 5.550277 198.1154 0 0 128 255 
-29.2023 25.76871 215.8196 0 0 140 255 
-29.22897 32.20924 220.8992 0 0 140 255 
-29.15222 9.78688 201.7937 0 0 132 255 
-29.19789 25.36256 215.4772 0 0 140 255 
-29.15818 9.079203 201.1556 0 0 132 255 
-29.1247 10.493 202.406 0 0 132 255 
-29.14597 16.09478 207.35 0 0 140 255 
-29.15083 4.830618 197.304 0 0 144 255 
-29.14338 16.51061 207.7645 0 0 140 255 
-29.14995 5.056645 197.5236 0 0 140 255 
-29.14137 20.31327 210.8896 0 0 132 255 
-29.20446 33.44026 222.1307 0 0 152 255 
-29.13065 2.962693 195.7268 0 0 140 255 
-29.11923 15.37798 206.724 0 0 132 255 
-29.11656 16.20528 207.5037 0 0 140 255 
-29.15164 31.0021 220.4041 0 0 140 255 
-29.11311 15.52738 206.9194 0 0 136 255 
-29.09544 13.75979 205.2897 0 0 136 255 
-29.09512 14.40367 205.9099 0 0 136 255 
-29.16307 32.44186 221.4644 0 0 136 255 
-29.17289 32.9296 222.1053 0 0 148 255 
-29.05763 12.90843 204.5497 0 0 132 255 
-29.12373 28.60489 218.39 0 0 144 255 
-29.13762 32.17064 220.8994 0 0 140 255 
-29.09308 19.94831 210.6392 0 0 132 255 
-29.06734 8.120883 200.3482 0 0 132 255 
-29.0386 11.12005 202.9968 0 0 132 255 
-29.06791 7.35943 199.7709 0 0 132 255 
-29.12241 32.56254 221.7518 0 0 136 255 
-29.01993 11.8151 203.5993 0 0 132 255 
-29.03591 10.03328 202.0596 0 0 132 255 
-29.06513 17.8343 208.9831 0 0 140 255 
-29.06396 5.571871 197.9815 0 0 144 255 
-29.07859 27.27361 217.203 0 0 140 255 
-29.05707 19.5981 210.3885 0 0 132 255 
-29.08916 32.36583 221.0414 0 0 136 255 
-29.05195 5.511211 197.9215 0 0 144 255 
-29.08809 31.94212 220.9232 0 0 136 255 
-29.03426 21.82764 212.2072 0 0 136 255 
-29.06525 29.45295 219.122 0 0 144 255 
-29.06904 32.2522 220.9074 0 0 136 255 
-28.9896 16.08017 207.4336 0 0 140 255 
-28.97644 20.86273 211.4168 0 0 132 255 
-28.94438 10.77837 202.7098 0 0 132 255 
-28.97377 6.551494 198.9064 0 0 140 255 
-28.99847 34.18015 221.9024 0 0 140 255 
-28.96363 7.039598 199.4338 0 0 132 255 
-28.9435 15.63713 207.0689 0 0 140 255 
-28.94018 15.9547 207.3435 0 0 140 255 
-28.97273 26.9918 216.9648 0 0 140 255 
-28.96703 33.88993 222.0105 0 0 140 255 
-28.97521 36.29427 221.1148 0 0 140 255 
-28.92179 9.107204 201.2704 0 0 132 255 
-28.95393 33.61831 222.1157 0 0 140 255 
-28.8964 12.58497 204.3249 0 0 132 255 
-28.91156 15.48777 206.9333 0 0 136 255 
-28.96 29.7424 219.3826 0 0 140 255 
-28.93987 25.68819 215.794 0 0 136 255 
-28.89894 15.34558 206.7874 0 0 136 255 
-28.91813 5.233156 197.725 0 0 140 255 
-28.91566 5.362185 197.828 0 0 140 255 
-28.93278 35.18672 221.5717 0 0 140 255 
-28.94623 32.52752 221.3699 0 0 132 255 
-28.89913 17.19498 208.4701 0 0 140 255 
-28.91031 25.02216 215.122 0 0 128 255 
-28.93587 33.03446 222.1121 0 0 140 255 
-28.84858 14.11513 205.7172 0 0 140 255 
-28.88005 7.812004 200.1606 0 0 132 255 
-28.86597 15.87063 207.2809 0 0 140 255 
-28.84626 11.98655 203.8647 0 0 136 255 
-28.86674 18.3833 209.4476 0 0 136 255 
-28.85125 18.99032 209.9461 0 0 132 255 
-28.81514 10.72122 202.7378 0 0 132 255 
-28.89347 32.27037 220.9879 0 0 132 255 
-28.88873 32.58606 221.5825 0 0 132 255 
-28.80242 10.7452 202.7614 0 0 132 255 
-28.80669 20.83328 211.4751 0 0 132 255 
-28.83689 25.54268 215.7037 0 0 140 255 
-28.77695 13.94039 205.5599 0 0 136 255 
-28.85108 31.67217 220.8779 0 0 132 255 
-28.77702 11.43595 203.3538 0 0 132 255 
-28.81012 4.625645 197.2395 0 0 140 255 
-28.80798 4.224743 196.9287 0 0 140 255 
-28.83399 32.43312 221.0224 0 0 132 255 
-28.76801 20.72195 211.402 0 0 128 255 
-28.77762 16.43738 207.8188 0 0 140 255 
-28.76302 20.63729 211.3204 0 0 128 255 
-28.79441 25.21725 215.4131 0 0 136 255 
-28.79923 31.26141 220.6554 0 0 136 255 
-28.77349 5.535891 198.0202 0 0 144 255 
-28.75607 10.22677 202.2831 0 0 128 255 
-28.74725 2.767427 195.6996 0 0 136 255 
-28.73744 18.65698 209.7005 0 0 136 255 
-28.71207 11.70067 203.6284 0 0 136 255 
-28.74748 4.402001 197.0739 0 0 140 255 
-28.7529 35.644 221.4633 0 0 140 255 
-28.70401 10.10213 202.2359 0 0 136 255 
-28.70279 9.808649 201.964 0 0 132 255 
-28.76658 32.57763 221.4544 0 0 132 255 
-28.71229 2.898076 195.8319 0 0 136 255 
-28.73862 31.51118 220.7938 0 0 132 255 
-28.6953 20.65473 211.4088 0 0 128 255 
-28.7399 33.68289 222.1775 0 0 148 255 
-28.73583 31.83001 221.0176 0 0 132 255 
-28.74788 33.33942 222.2698 0 0 140 255 
-28.65957 14.81531 206.3344 0 0 136 255 
-28.66277 9.5906 201.7742 0 0 132 255 
-28.63022 13.22086 204.9302 0 0 132 255 
-28.66634 6.110658 198.5786 0 0 140 255 
-28.70642 32.38026 221.0976 0 0 132 255 
-28.65525 2.588431 195.5543 0 0 136 255 
-28.63999 15.20628 206.747 0 0 136 255 
-28.69707 32.55375 221.3531 0 0 132 255 
-28.6645 30.03768 219.7483 0 0 144 255 
-28.60396 12.03709 203.9922 0 0 136 255 
-28.63135 19.96481 210.7785 0 0 128 255 
-28.64256 7.646205 200.1059 0 0 132 255 
-28.58758 10.72676 202.8099 0 0 132 255 
-28.66434 32.25986 221.1365 0 0 132 255 
-28.61385 36.31351 221.3864 0 0 128 255 
-28.60933 22.71573 213.1377 0 0 132 255 
-28.62635 25.72625 215.8996 0 0 136 255 
-28.57228 10.9806 203.0487 0 0 136 255 
-28.64917 32.59681 221.5937 0 0 136 255 
-28.6029 4.867603 197.5411 0 0 136 255 
-28.61138 34.51524 221.9567 0 0 144 255 
-28.57845 8.635792 200.899 0 0 132 255 
-28.56982 15.36211 206.8727 0 0 136 255 
-28.59107 7.372067 199.9079 0 0 132 255 
-28.58974 7.136994 199.6768 0 0 132 255 
-28.56633 16.94434 208.3071 0 0 140 255 
-28.60915 32.54979 221.2393 0 0 136 255 
-28.57235 4.066178 196.8887 0 0 136 255 
-28.59084 29.12178 219.019 0 0 148 255 
-28.55035 6.419057 198.8494 0 0 140 255 
-28.54901 3.199356 196.1339 0 0 136 255 
-28.58177 32.55432 221.1606 0 0 132 255 
-28.52961 9.057358 201.3095 0 0 132 255 
-28.50128 13.88469 205.6324 0 0 140 255 
-28.51885 22.41861 212.8888 0 0 132 255 
-28.54858 32.3071 221.1859 0 0 132 255 
-28.53124 0.8396815 194.0636 0 0 136 255 
-28.4834 9.587944 201.7938 0 0 132 255 
-28.47919 16.05401 207.5208 0 0 140 255 
-28.47211 10.08675 202.2774 0 0 132 255 
-28.5278 33.04966 222.264 0 0 136 255 
-28.49471 3.914864 196.7745 0 0 136 255 
-28.46608 21.60326 212.1954 0 0 132 255 
-28.47967 16.5469 208.0135 0 0 144 255 
-28.50036 35.08312 221.8385 0 0 144 255 
-28.44205 23.25356 213.5572 0 0 136 255 
-28.41935 10.84399 202.9427 0 0 132 255 
-28.43999 21.64546 212.2442 0 0 132 255 
-28.41927 10.97855 203.0719 0 0 132 255 
-28.4766 31.95398 221.1896 0 0 132 255 
-28.43748 22.07448 212.5994 0 0 132 255 
-28.43704 17.28986 208.647 0 0 140 255 
-28.41276 13.62154 205.3925 0 0 136 255 
-28.47615 36.10151 221.4417 0 0 148 255 
-28.45588 34.37813 222.0669 0 0 148 255 
-28.46019 32.5902 221.2314 0 0 132 255 
-28.41249 9.953778 202.1512 0 0 132 255 
-28.42417 24.5687 214.8363 0 0 128 255 
-28.44955 32.54099 221.2048 0 0 136 255 
-28.41039 9.086983 201.3624 0 0 128 255 
-28.41055 8.905303 201.1878 0 0 132 255 
-28.37476 13.16021 205.02 0 0 136 255 
-28.38133 20.72817 211.5015 0 0 128 255 
-28.40089 4.589372 197.3242 0 0 140 255 
-28.42033 32.23535 221.2774 0 0 136 255 
-28.36305 15.18498 206.7945 0 0 136 255 
-28.3795 9.033263 201.3353 0 0 128 255 
-28.36768 21.55625 212.205 0 0 128 255 
-28.38512 7.703846 200.2032 0 0 132 255 
-28.36152 8.20944 200.6249 0 0 132 255 
-28.3513 8.498485 200.8713 0 0 128 255 
-28.32499 12.45197 204.4372 0 0 140 255 
-28.32829 9.466182 201.7267 0 0 132 255 
-28.30899 10.97638 203.0778 0 0 132 255 
-28.31631 21.59187 212.2303 0 0 132 255 
-28.31869 9.086758 201.3852 0 0 128 255 
-28.34763 32.62025 221.4502 0 0 132 255 
-28.34101 32.61886 221.396 0 0 132 255 
-28.30288 17.86331 209.1777 0 0 140 255 
-28.33505 31.78556 221.0746 0 0 132 255 
-28.28418 15.41883 207.0016 0 0 136 255 
-28.33023 33.65438 222.4029 0 0 140 255 
-28.26366 18.8245 209.8818 0 0 132 255 
-28.29334 25.61868 215.8555 0 0 136 255 
-28.29876 1.19278 194.3647 0 0 144 255 
-28.29195 26.45964 216.595 0 0 136 255 
-28.25875 21.44322 212.1171 0 0 132 255 
-28.25772 21.6695 212.3169 0 0 132 255 
-28.24248 11.07998 203.2024 0 0 132 255 
-28.25485 9.841899 202.1272 0 0 132 255 
-28.24997 17.4832 208.841 0 0 140 255 
-28.2958 36.28093 221.4567 0 0 152 255 
-28.27073 30.23987 219.9341 0 0 136 255 
-28.22987 16.21694 207.7153 0 0 140 255 
-28.22839 19.84568 210.7455 0 0 132 255 
-28.28442 33.04695 222.3467 0 0 136 255 
-28.20892 14.50011 206.2411 0 0 140 255 
-28.21929 3.178423 196.1563 0 0 140 255 
-28.21404 5.206582 197.9016 0 0 140 255 
-28.20059 4.888648 197.6411 0 0 140 255 
-28.20423 16.51558 208.0573 0 0 144 255 
-28.18868 4.721567 197.4964 0 0 140 255 
-28.24029 34.46268 222.1981 0 0 140 255 
-28.17591 6.906896 199.5101 0 0 132 255 
-28.13918 11.65312 203.7685 0 0 136 255 
-28.15515 2.682925 195.7498 0 0 136 255 
-28.13378 11.93304 204.0484 0 0 140 255 
-28.14506 30.91169 220.4758 0 0 132 255 
-28.12123 8.335536 200.8327 0 0 128 255 
-28.13033 9.13888 201.5092 0 0 132 255 
-28.13319 3.320139 196.3068 0 0 140 255 
-28.13635 26.63951 216.8156 0 0 136 255 
-28.12772 16.68084 208.1966 0 0 144 255 
-28.14421 28.92829 218.8757 0 0 140 255 
-28.10385 9.524368 201.9004 0 0 132 255 
-28.08694 22.46802 213.0389 0 0 132 255 
-28.10038 3.597064 196.5494 0 0 140 255 
-28.14531 33.63192 222.5074 0 0 140 255 
-28.14346 32.81114 222.1459 0 0 136 255 
-28.06065 23.22993 213.6362 0 0 136 255 
-28.08323 1.973058 195.1062 0 0 140 255 
-28.08489 27.03604 217.1477 0 0 136 255 
-28.11788 32.60107 221.4879 0 0 136 255 
-28.11349 34.76477 222.1392 0 0 140 255 
-28.11565 34.16215 222.3731 0 0 140 255 
-28.07191 7.196225 199.8772 0 0 132 255 
-28.0748 29.35396 219.2218 0 0 140 255 
-28.01859 13.00098 205.0008 0 0 140 255 
-28.04052 3.039084 196.0905 0 0 136 255 
-28.06925 31.55908 220.9359 0 0 136 255 
-28.08168 34.41003 222.3097 0 0 140 255 
-28.01692 27.67784 217.6704 0 0 132 255 
-28.02817 4.393886 197.246 0 0 140 255 
-28.06589 35.05665 222.046 0 0 140 255 
-27.99265 15.37933 207.016 0 0 136 255 
-28.03136 31.224 220.7504 0 0 132 255 
-28.04956 32.51605 221.4287 0 0 136 255 
-28.00258 1.685321 194.8383 0 0 144 255 
-27.95679 13.93638 205.827 0 0 140 255 
-27.95946 15.13983 206.8488 0 0 140 255 
-27.95845 12.62034 204.6824 0 0 140 255 
-27.95717 19.36399 210.3553 0 0 132 255 
-27.97195 8.005532 200.5557 0 0 132 255 
-27.9389 15.73946 207.3411 0 0 136 255 
-27.9195 11.14239 203.337 0 0 136 255 
-27.94662 3.259663 196.2726 0 0 140 255 
-27.91365 14.79064 206.5246 0 0 136 255 
-27.94011 25.84737 216.1537 0 0 136 255 
-27.93405 3.460979 196.4621 0 0 140 255 
-27.92245 9.403178 201.7989 0 0 132 255 
-27.89563 14.97278 206.7098 0 0 140 255 
-27.92384 9.027498 201.4094 0 0 128 255 
-27.92058 4.754163 197.5783 0 0 140 255 
-27.92006 25.47912 215.8623 0 0 140 255 
-27.96302 32.30392 221.4742 0 0 136 255 
-27.95784 33.91543 222.5296 0 0 140 255 
-27.95316 32.06687 221.4343 0 0 136 255 
-27.86829 12.21521 204.301 0 0 136 255 
-27.94816 35.46114 221.9202 0 0 140 255 
-27.86155 14.24034 206.0576 0 0 136 255 
-27.86832 27.49651 217.5685 0 0 132 255 
-27.87157 3.849258 196.8538 0 0 140 255 
-27.86477 9.82376 202.1982 0 0 132 255 
-27.87045 4.954466 197.7968 0 0 136 255 
-27.87678 7.529189 200.1914 0 0 132 255 
-27.87725 29.07997 219.0422 0 0 140 255 
-27.82171 11.694 203.8142 0 0 132 255 
-27.84405 20.91614 211.7992 0 0 128 255 
-27.81247 11.11252 203.2885 0 0 132 255 
-27.90392 33.05537 222.4199 0 0 140 255 
-27.89719 32.01503 221.4306 0 0 136 255 
-27.81772 21.43221 212.1754 0 0 136 255 
-27.82922 24.07501 214.4988 0 0 132 255 
-27.88003 32.62289 221.4919 0 0 136 255 
-27.816 1.247496 194.4414 0 0 148 255 
-27.87246 33.35536 222.5333 0 0 140 255 
-27.79676 9.030109 201.4923 0 0 132 255 
-27.79396 27.09965 217.2712 0 0 132 255 
-27.7775 6.585534 199.2712 0 0 132 255 
-27.76026 21.1128 211.941 0 0 132 255 
-27.76506 9.174111 201.6189 0 0 132 255 
-27.76481 2.034146 195.2116 0 0 144 255 
-27.76696 16.39109 207.99 0 0 140 255 
-27.82347 34.12992 222.5248 0 0 140 255 
-27.74268 3.088532 196.1339 0 0 144 255 
-27.73489 15.65458 207.3014 0 0 136 255 
-27.72733 19.04254 210.1552 0 0 132 255 
-27.74717 7.705647 200.3429 0 0 128 255 
-27.70248 13.13118 205.1485 0 0 136 255 
-27.69837 11.86904 204.0294 0 0 136 255 
-27.69586 13.34435 205.3246 0 0 136 255 
-27.77393 32.67902 221.9081 0 0 136 255 
-27.70731 3.917138 196.9568 0 0 140 255 
-27.76329 32.8375 222.2296 0 0 140 255 
-27.75391 32.25343 221.5544 0 0 136 255 
-27.68572 9.753103 202.1644 0 0 132 255 
-27.69504 7.735373 200.3725 0 0 128 255 
-27.66877 6.29152 199.0267 0 0 136 255 
-27.66255 15.53222 207.1951 0 0 132 255 
-27.66403 3.204528 196.2496 0 0 144 255 
-27.67039 27.38969 217.5495 0 0 132 255 
-27.67862 28.81839 218.8166 0 0 136 255 
-27.67946 29.57295 219.4734 0 0 136 255 
-27.69691 31.7888 221.2733 0 0 136 255 
-27.61879 10.94757 203.1991 0 0 132 255 
-27.65363 30.45208 220.2227 0 0 132 255 
-27.62959 21.91439 212.649 0 0 136 255 
-27.62131 16.27994 207.8752 0 0 136 255 
-27.59624 11.24552 203.4539 0 0 132 255 
-27.6802 33.07808 222.4783 0 0 140 255 
-27.67999 35.08941 222.1893 0 0 140 255 
-27.60168 18.52189 209.766 0 0 132 255 
-27.60557 9.443289 201.9258 0 0 132 255 
-27.60849 7.543692 200.2774 0 0 132 255 
-27.57361 20.6109 211.5432 0 0 132 255 
-27.5814 9.812433 202.243 0 0 132 255 
-27.56659 15.15949 206.8889 0 0 132 255 
-27.55536 11.81145 204.0179 0 0 136 255 
-27.57733 28.15068 218.2543 0 0 136 255 
-27.55456 22.36353 213.0477 0 0 132 255 
-27.54949 16.11436 207.7316 0 0 136 255 
-27.60399 32.24081 221.608 0 0 136 255 
-27.58584 31.40966 220.9723 0 0 132 255 
-27.60732 34.546 222.4283 0 0 140 255 
-27.6004 32.67897 221.9289 0 0 136 255 
-27.52891 7.44008 200.1931 0 0 128 255 
-27.52136 8.790926 201.2264 0 0 128 255 
-27.57732 34.18379 222.5881 0 0 140 255 
-27.51523 10.99932 203.2323 0 0 128 255 
-27.51656 4.085891 197.1267 0 0 140 255 
-27.50987 24.43816 214.944 0 0 128 255 
-27.50136 8.791593 201.263 0 0 128 255 
-27.55219 32.16626 221.6179 0 0 136 255 
-27.48623 15.51681 207.2185 0 0 132 255 
-27.54772 33.9057 222.6869 0 0 140 255 
-27.4524 11.62224 203.8794 0 0 136 255 
-27.46662 17.01995 208.5456 0 0 136 255 
-27.53083 32.49392 221.6851 0 0 140 255 
-27.46374 25.44732 215.9184 0 0 136 255 
-27.52914 32.73703 222.1933 0 0 140 255 
-27.44471 2.986799 196.0541 0 0 148 255 
-27.44214 18.14751 209.4807 0 0 132 255 
-27.4396 5.202901 198.0609 0 0 140 255 
-27.44187 16.33731 207.9657 0 0 136 255 
-27.44889 0.9293512 194.1901 0 0 156 255 
-27.40348 12.84928 204.9579 0 0 136 255 
-27.44363 30.11789 219.9905 0 0 136 255 
-27.40907 16.19744 207.8136 0 0 132 255 
-27.41141 9.276863 201.843 0 0 132 255 
-27.43871 36.30692 221.7459 0 0 136 255 
-27.40306 17.58322 209.088 0 0 136 255 
-27.3842 19.34039 210.4522 0 0 136 255 
-27.3684 11.23914 203.5116 0 0 132 255 
-27.38765 4.62274 197.5234 0 0 148 255 
-27.42554 34.5579 222.4731 0 0 140 255 
-27.38046 8.951506 201.5531 0 0 132 255 
-27.37047 4.328693 197.2942 0 0 148 255 
-27.3322 20.91098 211.8387 0 0 132 255 
-27.35412 9.488082 202.0791 0 0 136 255 
-27.34935 8.420596 201.076 0 0 128 255 
-27.34759 6.921684 199.7856 0 0 128 255 
-27.31965 20.70975 211.678 0 0 132 255 
-27.33885 8.747005 201.3155 0 0 128 255 
-27.33039 4.870499 197.8025 0 0 140 255 
-27.32544 3.496891 196.5538 0 0 148 255 
