ply
format ascii 1.0
comment VCGLIB generated
element vertex 1155
property float x
property float y
property float z
property uchar red
property uchar green
property uchar blue
property uchar alpha
element face 0
property list uchar int vertex_indices
end_header
0.4454394 -60.10833 141.1978 0 0 148 255 
0.3304761 -66.62543 141.5815 0 0 132 255 
0.4463447 -58.25158 140.7955 0 0 152 255 
2.368334 -44.45523 137.0501 34 255 222 255 
4.439575 -19.7744 129.5365 208 0 0 255 
4.350373 -29.67731 128.8795 244 0 0 255 
2.901718 -41.9044 135.7395 146 255 110 255 
4.446283 -25.53885 128.7412 212 0 0 255 
0.4026769 -66.13723 142.4053 0 0 132 255 
0.5317541 -58.57269 140.87 0 0 156 255 
0.415062 -65.42619 142.503 0 0 132 255 
3.748863 -35.12967 131.9155 255 152 0 255 
3.533326 -37.36486 133.3985 255 204 0 255 
0.4470015 -67.00675 141.558 0 0 132 255 
3.03391 -41.19178 135.4437 174 255 82 255 
0.4388048 -65.99965 142.5198 0 0 132 255 
4.423492 -28.77837 128.6241 228 0 0 255 
4.570921 -23.42614 128.7733 200 0 0 255 
4.600287 -24.00048 128.6833 196 0 0 255 
0.3906192 -55.54399 138.8177 0 0 128 255 
1.148545 -51.19627 138.5825 0 4 255 255 
0.4362493 -62.56534 141.8512 0 0 136 255 
4.521649 -25.69682 128.7188 212 0 0 255 
4.351584 -30.67974 129.3864 255 20 0 255 
0.524533 -56.83775 140.0323 0 0 156 255 
4.503912 -27.43233 128.5152 216 0 0 255 
2.267517 -45.78283 137.5501 0 232 255 255 
4.50541 -28.00072 128.4561 216 0 0 255 
3.651234 -36.97608 133.1478 255 196 0 255 
0.5921098 -66.35947 141.8613 0 0 136 255 
0.4571646 -69.39513 139.7116 0 0 128 255 
4.547193 -26.87885 128.5236 212 0 0 255 
1.062417 -52.00801 138.5914 0 0 232 255 
4.616437 -20.0404 129.5227 212 0 0 255 
0.6931757 -59.73965 141.0909 0 0 152 255 
3.271818 -40.28228 134.9166 210 255 46 255 
4.681319 -21.63193 129.0188 200 0 0 255 
2.951534 -42.58242 136.0461 118 255 138 255 
2.628534 -44.23594 136.8265 46 255 210 255 
3.878423 -35.399 132.0392 255 156 0 255 
4.276669 -32.14646 130.0602 255 56 0 255 
0.6013302 -65.97863 142.4976 0 0 132 255 
0.4991106 -70.3323 138.9379 0 0 128 255 
0.707902 -58.81526 141.0019 0 0 152 255 
0.5284379 -56.17968 139.1144 0 0 128 255 
3.975556 -34.46081 131.4276 255 128 0 255 
4.662279 -19.72264 129.573 208 0 0 255 
3.348996 -40.04193 134.7793 222 255 34 255 
1.893607 -48.18728 138.0111 0 132 255 255 
4.728106 -20.43672 129.2081 204 0 0 255 
0.6739736 -67.03471 141.6388 0 0 132 255 
0.5626721 -69.77671 139.3982 0 0 128 255 
4.766759 -20.79322 129.0057 196 0 0 255 
2.786366 -43.63085 136.5129 74 255 182 255 
0.7164705 -66.44323 142.2437 0 0 132 255 
0.6004015 -56.06881 138.9906 0 0 128 255 
4.669139 -29.39163 128.7322 236 0 0 255 
0.6170565 -56.41721 139.3424 0 0 128 255 
0.6601669 -64.06293 142.2723 0 0 132 255 
2.548847 -45.05348 137.1395 14 255 242 255 
3.592007 -39.02435 134.2163 255 252 0 255 
0.6429584 -57.9493 140.9205 0 0 128 255 
4.313338 -33.07699 130.538 255 84 0 255 
0.7801486 -66.46941 141.9941 0 0 132 255 
4.023252 -35.655 132.1691 255 160 0 255 
0.8489413 -59.08595 141.0351 0 0 152 255 
0.6838626 -57.41286 140.4044 0 0 128 255 
4.470069 -31.79207 129.8273 255 44 0 255 
3.845725 -37.99646 133.7047 255 220 0 255 
4.790055 -28.54312 128.4852 224 0 0 255 
0.7851895 -64.63338 142.3917 0 0 136 255 
3.567548 -39.66349 134.5623 234 255 22 255 
4.908149 -20.38446 129.1293 200 0 0 255 
0.8856802 -56.95142 140.1058 0 0 160 255 
0.832578 -67.25637 141.4426 0 0 132 255 
4.828837 -29.06283 128.5878 228 0 0 255 
0.7545632 -55.90462 138.8342 0 0 128 255 
0.8669067 -67.01039 141.6505 0 0 132 255 
0.9536548 -54.81081 138.4389 0 0 160 255 
4.929661 -25.10582 128.6555 204 0 0 255 
0.8534163 -61.08939 141.5265 0 0 140 255 
4.961892 -19.86234 129.4033 204 0 0 255 
3.963052 -37.62384 133.5165 255 212 0 255 
2.885649 -44.32928 136.7521 50 255 206 255 
0.8995805 -65.74991 142.5823 0 0 132 255 
0.8311054 -69.11777 139.9869 0 0 128 255 
3.368541 -41.89496 135.4646 158 255 98 255 
0.8731758 -62.38217 141.799 0 0 140 255 
5.002206 -23.41254 128.8198 204 0 0 255 
4.864083 -29.92493 128.9125 248 0 0 255 
0.8215557 -71.26836 138.2812 0 0 128 255 
5.052401 -22.05217 129.019 204 0 0 255 
1.050255 -58.35526 140.771 0 0 160 255 
4.210452 -35.21746 131.7999 255 148 0 255 
4.989208 -26.37744 128.5369 208 0 0 255 
2.771011 -45.14599 137.0323 14 255 242 255 
0.8617159 -70.13319 139.1818 0 0 128 255 
5.060745 -22.98707 128.8689 204 0 0 255 
1.060228 -57.95581 140.6731 0 0 160 255 
1.403521 -52.18465 138.4827 0 0 232 255 
3.672465 -40.06063 134.6193 226 255 30 255 
0.8968917 -56.65618 139.5373 0 0 128 255 
4.199028 -36.19083 132.4993 255 172 0 255 
1.03273 -66.32056 142.4026 0 0 132 255 
1.04568 -66.93194 141.689 0 0 132 255 
4.742868 -31.16649 129.5322 255 28 0 255 
0.9377473 -56.27066 139.1191 0 0 128 255 
0.9411585 -55.70867 138.8019 0 0 128 255 
1.062869 -65.62521 142.6021 0 0 132 255 
1.007142 -61.57445 141.6072 0 0 140 255 
2.089354 -49.17871 138.224 0 92 255 255 
1.12992 -57.23235 140.3494 0 0 164 255 
4.078932 -37.93104 133.5577 255 212 0 255 
5.2355 -21.36068 128.8724 196 0 0 255 
1.070479 -68.13355 140.8143 0 0 132 255 
5.110936 -27.20983 128.4017 208 0 0 255 
3.926956 -38.78592 133.9741 255 240 0 255 
1.084582 -63.94647 142.2596 0 0 136 255 
2.770283 -46.16499 137.2728 0 224 255 255 
5.255631 -22.35689 128.8944 204 0 0 255 
1.227757 -54.74734 138.4314 0 0 164 255 
5.237888 -20.23237 129.1327 200 0 0 255 
1.095758 -68.44877 140.4811 0 0 132 255 
1.210254 -66.32633 141.6621 0 0 140 255 
1.230151 -66.45878 142.0278 0 0 136 255 
1.071103 -56.08931 138.9166 0 0 128 255 
5.156307 -28.77835 128.4382 220 0 0 255 
5.306661 -23.32577 128.7453 200 0 0 255 
5.276117 -25.8376 128.5029 204 0 0 255 
2.592701 -47.2423 137.4735 0 180 255 255 
5.339411 -23.83448 128.6104 196 0 0 255 
2.941492 -45.401 137.1715 2 255 254 255 
4.819643 -32.27443 129.9257 255 52 0 255 
2.428757 -48.23128 137.8118 0 136 255 255 
1.251604 -65.8168 142.6331 0 0 136 255 
5.228793 -27.72374 128.3255 208 0 0 255 
1.739909 -51.89056 138.4849 0 0 244 255 
5.380272 -24.23227 128.5542 196 0 0 255 
5.368006 -21.93478 128.9159 200 0 0 255 
1.123727 -57.25845 140.148 0 0 128 255 
1.247367 -61.10413 141.3885 0 0 148 255 
1.126239 -55.89965 138.8215 0 0 128 255 
5.210148 -29.24501 128.4969 224 0 0 255 
1.37289 -58.67381 140.8268 0 0 164 255 
1.157779 -55.71791 138.8128 0 0 128 255 
4.579358 -35.05307 131.6551 255 144 0 255 
1.227391 -70.89722 138.4514 0 0 132 255 
1.336175 -60.582 141.2386 0 0 152 255 
4.398796 -36.79422 132.8182 255 184 0 255 
1.190927 -56.25238 139.052 0 0 128 255 
1.291055 -62.61388 141.8185 0 0 148 255 
1.223139 -70.50562 138.9785 0 0 128 255 
3.098247 -44.94172 137.0444 22 255 234 255 
5.18328 -30.40321 129.0022 255 0 0 255 
5.386082 -27.29716 128.3274 204 0 0 255 
1.355652 -67.20718 141.6465 0 0 132 255 
1.396699 -63.0269 141.9871 0 0 144 255 
5.487426 -22.72881 128.8267 204 0 0 255 
1.440362 -66.48562 142.0597 0 0 140 255 
1.260132 -56.78659 139.6051 0 0 128 255 
1.303081 -70.08952 139.267 0 0 128 255 
4.345234 -37.71149 133.3572 255 204 0 255 
4.80175 -34.10001 131.0375 255 112 0 255 
1.415785 -67.39487 141.5163 0 0 132 255 
3.93063 -40.50935 134.8066 214 255 42 255 
1.488581 -66.40556 141.7276 0 0 140 255 
3.724746 -42.33719 135.6424 142 255 114 255 
4.403099 -37.27298 133.059 255 192 0 255 
4.708011 -35.33126 131.8215 255 152 0 255 
5.547728 -20.70903 128.9125 196 0 0 255 
1.393786 -68.75101 140.1723 0 0 136 255 
1.544877 -66.42208 142.2581 0 0 140 255 
4.059579 -40.02604 134.6282 230 255 26 255 
2.153024 -50.7723 138.4905 0 32 255 255 
1.505008 -66.97231 141.7022 0 0 136 255 
1.559787 -56.79797 139.9292 0 0 164 255 
5.576931 -23.47449 128.6667 200 0 0 255 
1.509359 -66.49957 141.7234 0 0 136 255 
5.578173 -23.26591 128.7087 200 0 0 255 
1.570622 -65.94508 142.537 0 0 140 255 
5.576162 -19.92399 129.315 204 0 0 255 
1.575131 -65.65935 142.6174 0 0 136 255 
1.537247 -61.65812 141.5586 0 0 148 255 
1.406152 -56.70124 139.486 0 0 128 255 
5.610543 -25.51491 128.5095 200 0 0 255 
1.961981 -52.17235 138.4252 0 0 240 255 
1.629825 -66.46658 142.0279 0 0 140 255 
1.460979 -70.81963 138.7587 0 0 128 255 
1.57789 -66.60283 141.6864 0 0 136 255 
2.66087 -48.63225 138.0022 0 120 255 255 
1.670239 -57.80787 140.5174 0 0 172 255 
1.450625 -55.82248 138.8388 0 0 128 255 
1.594687 -66.66398 141.6679 0 0 136 255 
5.556368 -28.46908 128.2993 212 0 0 255 
5.555497 -28.9811 128.3615 220 0 0 255 
4.02267 -41.32135 135.2359 182 255 74 255 
5.72596 -21.76278 128.9329 204 0 0 255 
1.665155 -66.20761 142.2908 0 0 144 255 
1.696207 -63.87519 142.1005 0 0 148 255 
1.745402 -54.59321 138.3289 0 0 172 255 
1.701906 -56.94503 140.0653 0 0 168 255 
5.740078 -22.38012 128.8766 204 0 0 255 
5.349734 -31.67419 129.594 255 32 0 255 
3.835441 -42.66899 135.8168 130 255 126 255 
4.392826 -38.98502 133.9621 255 240 0 255 
1.526389 -56.09002 138.8741 0 0 128 255 
5.696216 -27.25782 128.1981 200 0 0 255 
5.750078 -22.90081 128.7813 204 0 0 255 
5.743153 -24.72151 128.6268 204 0 0 255 
1.790174 -58.13029 140.6195 0 0 172 255 
5.816067 -24.13866 128.6418 200 0 0 255 
1.791341 -57.59299 140.449 0 0 172 255 
1.766225 -63.33984 142.0152 0 0 148 255 
2.002572 -52.97946 138.5058 0 0 216 255 
5.010979 -34.86908 131.423 255 132 0 255 
1.808128 -54.92762 138.328 0 0 164 255 
3.139349 -46.87901 137.4993 0 200 255 255 
5.786626 -25.05847 128.6464 204 0 0 255 
1.83758 -65.96764 142.3166 0 0 148 255 
3.271555 -46.31967 137.4757 0 220 255 255 
2.561911 -49.94242 138.4441 0 64 255 255 
1.837655 -59.62281 140.9513 0 0 164 255 
1.832468 -57.22962 140.3183 0 0 172 255 
1.793534 -62.79205 141.894 0 0 148 255 
1.884968 -58.94297 140.7831 0 0 168 255 
1.641004 -57.48405 140.3019 0 0 128 255 
1.892869 -66.30246 142.1266 0 0 148 255 
1.857929 -66.3298 141.6758 0 0 148 255 
1.740849 -68.69649 140.3697 0 0 136 255 
4.990015 -35.578 131.8951 255 148 0 255 
1.826903 -67.08807 141.5751 0 0 140 255 
1.891312 -57.7208 140.4839 0 0 176 255 
1.681269 -55.89885 138.8495 0 0 128 255 
4.459532 -39.92972 134.4713 238 255 18 255 
3.712327 -44.28478 136.6044 58 255 198 255 
1.68733 -57.87653 140.718 0 0 128 255 
1.900801 -66.39475 141.528 0 0 148 255 
1.700897 -55.80409 138.8637 0 0 128 255 
1.821731 -68.27677 140.7012 0 0 136 255 
4.946732 -36.61475 132.5618 255 172 0 255 
2.064995 -53.794 138.4346 0 0 192 255 
1.907034 -63.03228 142.0022 0 0 144 255 
1.729725 -56.43037 139.1437 0 0 128 255 
5.726973 -30.1986 128.8548 248 0 0 255 
2.029679 -54.5084 138.3131 0 0 176 255 
6.005844 -20.69716 128.9454 196 0 0 255 
5.83245 -28.69266 128.2551 212 0 0 255 
2.051541 -66.40647 141.9874 0 0 148 255 
5.185797 -35.00497 131.4405 255 132 0 255 
1.860901 -70.30383 139.3931 0 0 128 255 
1.9983 -57.37056 140.396 0 0 172 255 
6.060372 -24.33408 128.6185 200 0 0 255 
3.929334 -43.89088 136.3896 78 255 178 255 
5.335443 -34.03326 130.8789 255 100 0 255 
6.013747 -19.77588 129.246 204 0 0 255 
2.037461 -66.43141 141.58 0 0 144 255 
2.240539 -52.83704 138.4499 0 0 220 255 
4.332731 -41.78916 135.3444 170 255 86 255 
6.014004 -26.58182 128.2905 200 0 0 255 
2.058273 -66.90214 141.6613 0 0 140 255 
2.621073 -51.05962 138.3735 0 28 255 255 
5.250479 -35.02028 131.4466 255 132 0 255 
6.096686 -22.84713 128.8076 204 0 0 255 
5.913037 -29.12999 128.437 224 0 0 255 
2.143439 -65.99084 142.3275 0 0 152 255 
1.983069 -69.78117 139.8166 0 0 132 255 
1.888532 -56.71185 139.4172 0 0 128 255 
1.892376 -56.12997 138.8739 0 0 128 255 
6.050178 -27.15536 128.1617 196 0 0 255 
5.724505 -30.98745 129.2967 255 16 0 255 
2.037131 -61.18435 141.4564 0 0 148 255 
2.132129 -64.50713 142.2498 0 0 152 255 
1.91823 -57.39624 140.1612 0 0 128 255 
6.185429 -21.88717 128.858 204 0 0 255 
6.097959 -25.43124 128.6682 208 0 0 255 
2.102696 -62.6623 141.851 0 0 148 255 
5.653836 -32.10877 129.8077 255 44 0 255 
5.717092 -31.40484 129.3957 255 24 0 255 
3.616741 -46.03112 137.4341 0 236 255 255 
4.068529 -43.93685 136.4432 78 255 178 255 
2.234793 -58.08466 140.4308 0 0 180 255 
1.961561 -55.90364 138.8759 0 0 128 255 
6.190489 -20.80547 128.8941 196 0 0 255 
1.969952 -58.20081 140.9746 0 0 128 255 
4.695951 -40.48781 134.752 218 255 38 255 
2.062919 -71.06909 138.6826 0 0 128 255 
5.997144 -29.63438 128.6251 236 0 0 255 
3.476599 -47.21236 137.5958 0 188 255 255 
4.518914 -42.03446 135.4303 162 255 94 255 
2.002428 -58.32737 141.0567 0 0 128 255 
4.611038 -41.28934 135.2225 186 255 70 255 
2.283771 -54.48388 138.315 0 0 180 255 
5.476461 -34.55284 131.1748 255 120 0 255 
3.028794 -49.49608 138.3414 0 88 255 255 
2.293386 -66.34974 142.1994 0 0 148 255 
3.986104 -44.66367 136.9493 42 255 214 255 
3.35865 -47.85032 137.7729 0 160 255 255 
2.246386 -62.24429 141.7226 0 0 148 255 
2.257155 -66.82588 141.6485 0 0 140 255 
6.346373 -21.19255 128.7461 192 0 0 255 
2.128089 -70.58631 139.1455 0 0 128 255 
5.207603 -37.71516 133.2207 255 200 0 255 
2.440426 -53.55291 138.4012 0 0 204 255 
2.092707 -55.90557 138.8898 0 0 128 255 
4.981774 -39.16067 134.059 255 244 0 255 
4.918893 -39.83406 134.43 242 255 14 255 
6.268468 -26.02725 128.3524 196 0 0 255 
5.274121 -37.33062 132.9537 255 188 0 255 
2.358975 -59.44941 140.8404 0 0 172 255 
6.264473 -26.62907 128.2556 200 0 0 255 
2.371134 -65.29944 142.4379 0 0 148 255 
2.40393 -57.5982 140.2254 0 0 188 255 
3.947781 -45.24741 137.1474 18 255 238 255 
2.321827 -62.96525 141.9757 0 0 144 255 
5.374136 -36.85595 132.6596 255 176 0 255 
6.376674 -20.37855 129.0028 196 0 0 255 
6.354164 -19.95489 129.2106 204 0 0 255 
6.205521 -28.88122 128.3508 220 0 0 255 
2.433385 -64.76761 142.3074 0 0 152 255 
2.95034 -50.78624 138.4038 0 40 255 255 
2.770602 -51.74019 138.3575 0 4 255 255 
2.181746 -56.69228 139.3538 0 0 128 255 
6.036501 -30.61194 128.9971 255 0 0 255 
2.347419 -67.8175 141.3099 0 0 136 255 
5.758329 -32.96764 130.261 255 72 0 255 
2.406647 -54.94604 138.3378 0 0 168 255 
2.405127 -67.15024 141.6546 0 0 140 255 
6.262832 -28.62945 128.2897 216 0 0 255 
2.411358 -67.37824 141.6026 0 0 136 255 
5.068054 -39.73291 134.4087 246 255 10 255 
2.383684 -61.94288 141.6849 0 0 144 255 
6.416826 -25.34817 128.5988 204 0 0 255 
6.471744 -20.80719 128.8907 196 0 0 255 
2.523967 -54.40128 138.3752 0 0 180 255 
2.519013 -65.60705 142.4472 0 0 152 255 
2.508563 -63.95434 142.0365 0 0 156 255 
2.260703 -55.89775 138.9166 0 0 128 255 
2.477786 -62.33416 141.7189 0 0 152 255 
6.426728 -27.17416 128.2446 200 0 0 255 
5.296943 -38.43387 133.6583 255 224 0 255 
3.454365 -48.71028 138.0629 0 124 255 255 
5.632586 -35.33379 131.6426 255 144 0 255 
6.446952 -19.71721 129.2309 204 0 0 255 
2.41043 -68.53106 140.8232 0 0 132 255 
3.134648 -50.32299 138.4171 0 56 255 255 
2.533928 -66.82851 141.7103 0 0 140 255 
6.564701 -21.29937 128.842 200 0 0 255 
4.746279 -42.37716 135.6812 146 255 110 255 
2.3306 -56.41696 139.0559 0 0 128 255 
2.486372 -61.38279 141.4981 0 0 148 255 
2.737657 -52.963 138.4283 0 0 224 255 
2.476415 -68.21491 141.0587 0 0 132 255 
2.346882 -56.11177 138.8711 0 0 128 255 
2.444307 -69.54135 139.975 0 0 132 255 
5.462875 -37.50869 133.126 255 200 0 255 
3.306146 -49.78772 138.3315 0 80 255 255 
5.599007 -36.34304 132.3005 255 168 0 255 
2.375103 -57.89358 140.645 0 0 128 255 
6.618068 -22.11067 128.8661 208 0 0 255 
6.222218 -30.6225 128.967 252 0 0 255 
2.638512 -64.98347 142.3282 0 0 152 255 
6.187994 -31.18606 129.158 255 8 0 255 
2.654921 -64.3566 142.1365 0 0 156 255 
2.682102 -66.60497 142.0074 0 0 144 255 
2.495028 -70.34603 139.2074 0 0 132 255 
5.371597 -38.89446 133.9022 255 236 0 255 
6.609142 -24.99628 128.5624 200 0 0 255 
2.638017 -54.83027 138.3307 0 0 172 255 
5.506493 -37.94355 133.3697 255 212 0 255 
2.691391 -58.02187 140.4295 0 0 184 255 
2.719503 -65.7164 142.4905 0 0 148 255 
2.6916 -63.88652 142.0876 0 0 152 255 
4.059492 -46.51688 137.558 0 216 255 255 
3.207539 -51.18427 138.3161 0 28 255 255 
6.680633 -23.25001 128.82 208 0 0 255 
2.608595 -61.67306 141.6252 0 0 148 255 
2.731508 -66.65987 141.8049 0 0 140 255 
5.718308 -36.9352 132.7057 255 184 0 255 
2.714869 -67.17016 141.7209 0 0 140 255 
2.73746 -63.45477 141.9853 0 0 152 255 
4.684125 -43.39835 136.1959 102 255 154 255 
2.62804 -70.97346 138.6027 0 0 136 255 
5.548002 -38.42122 133.6384 255 224 0 255 
2.81269 -66.56789 141.9619 0 0 148 255 
6.787497 -23.6125 128.6599 204 0 0 255 
2.545532 -56.40733 139.0244 0 0 128 255 
2.76223 -57.4351 140.2459 0 0 184 255 
6.243024 -32.69935 129.944 255 56 0 255 
6.770787 -20.16459 129.0966 204 0 0 255 
6.811818 -21.22253 128.8083 200 0 0 255 
2.566954 -56.68829 139.2996 0 0 128 255 
2.574598 -56.26867 138.9366 0 0 128 255 
2.576187 -56.07286 138.9 0 0 128 255 
6.128779 -33.76443 130.6517 255 92 0 255 
2.583081 -57.90186 140.6297 0 0 128 255 
5.298592 -40.41561 134.7494 222 255 34 255 
2.804408 -58.27513 140.5201 0 0 180 255 
2.845755 -56.2238 139.0889 0 0 180 255 
6.787359 -26.34556 128.3531 200 0 0 255 
3.240924 -51.6374 138.2467 0 16 255 255 
2.857895 -66.80625 141.6912 0 0 144 255 
6.807763 -19.8346 129.1507 204 0 0 255 
2.820239 -57.23808 140.1568 0 0 188 255 
2.906148 -66.1525 142.2831 0 0 152 255 
2.87901 -66.58988 141.7497 0 0 144 255 
5.576018 -38.94052 133.9409 255 240 0 255 
2.895701 -54.64575 138.2029 0 0 184 255 
4.431398 -45.29045 137.1865 18 255 238 255 
2.893075 -67.0081 141.7142 0 0 140 255 
5.896961 -37.0197 132.7302 255 184 0 255 
5.25799 -41.09138 135.0799 198 255 58 255 
4.650976 -44.58799 136.8869 50 255 206 255 
6.859893 -24.9672 128.5507 200 0 0 255 
2.963779 -66.10209 142.324 0 0 152 255 
4.824479 -43.76879 136.426 86 255 170 255 
3.009018 -66.4609 142.2063 0 0 148 255 
5.964371 -36.42258 132.2957 255 168 0 255 
6.95088 -22.62374 128.7518 204 0 0 255 
2.853474 -60.84087 141.3749 0 0 152 255 
2.989559 -65.60562 142.502 0 0 148 255 
2.946927 -56.557 139.4257 0 0 184 255 
2.968334 -64.80696 142.2872 0 0 152 255 
4.34106 -46.37122 137.5513 0 224 255 255 
5.24238 -41.80765 135.3347 174 255 82 255 
3.207234 -52.41083 138.3639 0 0 244 255 
6.91554 -26.62193 128.2705 200 0 0 255 
6.915804 -25.77826 128.3992 200 0 0 255 
6.071505 -35.39672 131.6811 255 144 0 255 
4.285255 -47.07038 137.5956 0 200 255 255 
5.66128 -39.26696 134.1512 255 248 0 255 
2.999135 -67.05993 141.7358 0 0 140 255 
3.031525 -56.00268 138.7454 0 0 172 255 
5.389835 -41.3421 135.1939 190 255 66 255 
2.788167 -58.16762 140.8827 0 0 128 255 
7.040424 -23.25846 128.5493 196 0 0 255 
6.679384 -30.67202 128.8787 248 0 0 255 
3.903942 -49.20506 138.093 0 108 255 255 
6.308221 -34.15601 130.8641 255 104 0 255 
3.012724 -59.64632 141.0036 0 0 164 255 
7.097789 -23.68626 128.5144 196 0 0 255 
2.829984 -56.08699 138.9145 0 0 128 255 
5.66257 -39.9184 134.4492 242 255 14 255 
7.098964 -21.04763 128.8547 200 0 0 255 
2.853375 -58.16189 140.8761 0 0 128 255 
7.09783 -20.09708 129.0447 200 0 0 255 
3.121296 -58.93839 140.7207 0 0 172 255 
3.09024 -67.15173 141.7419 0 0 140 255 
7.069447 -25.3661 128.5776 204 0 0 255 
7.06657 -26.88905 128.2381 200 0 0 255 
3.024316 -68.44328 140.7974 0 0 136 255 
6.009773 -37.97318 133.3703 255 212 0 255 
7.101358 -25.61387 128.501 204 0 0 255 
2.920092 -56.27855 138.9378 0 0 128 255 
6.158031 -36.94864 132.714 255 184 0 255 
3.028145 -71.20311 138.6532 0 0 132 255 
7.199631 -20.70554 128.8698 196 0 0 255 
7.028704 -28.45495 128.0805 200 0 0 255 
3.205217 -64.37166 142.1761 0 0 156 255 
3.1803 -66.80589 141.7265 0 0 144 255 
5.146813 -43.54312 136.2988 98 255 158 255 
5.731486 -40.32646 134.7011 226 255 30 255 
6.049211 -37.7709 133.2568 255 208 0 255 
3.256785 -64.98801 142.2747 0 0 156 255 
6.333331 -35.2472 131.6087 255 144 0 255 
3.246503 -57.4607 140.2276 0 0 188 255 
3.269699 -66.09959 142.3189 0 0 156 255 
6.560279 -33.24036 130.316 255 76 0 255 
3.26224 -55.08548 138.1355 0 0 176 255 
3.247235 -58.24886 140.4851 0 0 180 255 
5.938945 -39.13267 134.0775 255 244 0 255 
4.609728 -46.61531 137.5543 0 220 255 255 
7.074525 -29.53559 128.4048 224 0 0 255 
7.316321 -21.36965 128.784 200 0 0 255 
7.316475 -20.15441 128.9298 196 0 0 255 
3.031975 -56.08599 138.9343 0 0 128 255 
3.177636 -62.0921 141.8035 0 0 140 255 
7.322553 -20.91273 128.8332 196 0 0 255 
4.435755 -47.75702 137.7268 0 172 255 255 
7.139115 -28.89219 128.199 208 0 0 255 
3.527628 -52.77987 138.1942 0 0 240 255 
7.354861 -21.96005 128.7674 204 0 0 255 
3.290081 -66.62897 141.8196 0 0 144 255 
3.143513 -70.83285 139.091 0 0 128 255 
3.076091 -58.00303 140.689 0 0 128 255 
7.349659 -23.27497 128.4893 192 0 0 255 
4.625531 -47.09628 137.5434 0 200 255 255 
5.087968 -44.60547 136.7817 54 255 202 255 
3.321804 -57.85921 140.3745 0 0 180 255 
3.395042 -66.39365 142.3871 0 0 148 255 
6.214011 -37.34772 133.0402 255 200 0 255 
3.365475 -67.03924 141.747 0 0 144 255 
6.13225 -38.12539 133.5376 255 220 0 255 
5.631777 -41.76157 135.4239 174 255 82 255 
7.29747 -27.49561 128.0214 192 0 0 255 
7.4627 -22.21854 128.6167 196 0 0 255 
3.15046 -57.82602 140.4845 0 0 128 255 
3.433046 -66.14491 142.3875 0 0 152 255 
6.548896 -34.6493 131.2696 255 124 0 255 
3.205303 -69.84581 140.0745 0 0 128 255 
7.438577 -20.68555 128.8781 196 0 0 255 
3.171412 -56.4683 139.0233 0 0 128 255 
7.463622 -20.442 128.9159 196 0 0 255 
3.493997 -65.52451 142.4192 0 0 156 255 
7.491268 -24.20153 128.5015 196 0 0 255 
5.382151 -43.10673 136.0128 122 255 134 255 
6.84601 -32.92975 130.1212 255 64 0 255 
3.558429 -66.44744 142.2099 0 0 152 255 
6.47007 -35.71906 131.9321 255 160 0 255 
3.489362 -66.62685 141.835 0 0 148 255 
7.460945 -24.89658 128.5472 200 0 0 255 
3.405097 -60.19228 141.2093 0 0 160 255 
6.729065 -33.84401 130.7884 255 100 0 255 
3.575399 -66.57189 142.0311 0 0 152 255 
7.492366 -24.65659 128.5705 200 0 0 255 
3.402446 -68.18894 141.1126 0 0 136 255 
3.514523 -67.19988 141.6894 0 0 144 255 
3.592611 -65.9362 142.4093 0 0 156 255 
3.281389 -58.44982 141.0848 0 0 128 255 
7.50306 -25.68617 128.2277 188 0 0 255 
3.75156 -52.81721 138.2299 0 0 240 255 
7.593899 -21.27127 128.7276 196 0 0 255 
3.477406 -62.3564 141.8187 0 0 148 255 
3.370471 -70.71454 139.2702 0 0 128 255 
3.322397 -58.32668 140.9921 0 0 128 255 
3.584988 -57.24982 140.0479 0 0 192 255 
4.632222 -47.96241 137.8483 0 164 255 255 
3.33279 -58.16599 140.8461 0 0 128 255 
3.343192 -56.78036 139.3139 0 0 128 255 
3.698937 -66.53314 142.0311 0 0 152 255 
3.598282 -67.2737 141.6644 0 0 144 255 
3.364749 -57.2623 139.8352 0 0 128 255 
5.10734 -45.21145 137.1895 26 255 230 255 
3.647493 -64.21048 142.0729 0 0 164 255 
3.643883 -66.71607 141.6924 0 0 148 255 
6.442384 -37.93433 133.4083 255 212 0 255 
3.431745 -70.46678 139.5072 0 0 128 255 
4.949217 -46.28591 137.59 0 232 255 255 
3.644584 -63.69931 142.0287 0 0 156 255 
7.653656 -20.10029 129.0962 204 0 0 255 
7.678343 -20.44096 128.9785 200 0 0 255 
4.303212 -50.65178 138.1485 0 60 255 255 
3.639237 -67.5975 141.5454 0 0 140 255 
7.714237 -21.13758 128.7672 196 0 0 255 
7.541424 -29.18952 128.3054 216 0 0 255 
3.675445 -67.3912 141.5972 0 0 144 255 
3.714264 -64.56772 142.1325 0 0 164 255 
3.918691 -53.02342 138.1277 0 0 236 255 
3.725546 -66.70511 141.6661 0 0 152 255 
7.693808 -24.83947 128.4656 196 0 0 255 
4.001907 -52.43316 138.2306 0 0 252 255 
7.671117 -27.31267 128.2083 200 0 0 255 
6.955122 -34.4244 131.0694 255 112 0 255 
7.698402 -25.39424 128.3493 192 0 0 255 
3.825779 -66.04104 142.2768 0 0 160 255 
6.580097 -37.59379 133.2379 255 208 0 255 
7.779784 -24.09871 128.4679 196 0 0 255 
7.696017 -25.97069 128.2376 192 0 0 255 
5.936557 -41.962 135.4621 170 255 86 255 
3.634002 -70.96695 138.8817 0 0 136 255 
4.753057 -48.09349 137.8073 0 160 255 255 
3.858314 -66.41319 142.108 0 0 156 255 
7.263962 -32.15856 129.6821 255 40 0 255 
6.54963 -38.06602 133.5163 255 220 0 255 
7.066523 -33.66871 130.6287 255 92 0 255 
3.680094 -62.27097 141.8555 0 0 144 255 
7.828312 -23.68643 128.5346 196 0 0 255 
3.816303 -66.67689 141.6884 0 0 152 255 
3.807283 -67.19614 141.6967 0 0 148 255 
3.561166 -56.62095 139.1408 0 0 128 255 
6.071437 -41.09641 135.1243 198 255 58 255 
7.874997 -19.9652 129.0407 200 0 0 255 
6.420649 -39.03017 134.0347 255 240 0 255 
6.724556 -37.30575 132.9718 255 196 0 255 
5.487205 -44.58836 136.7784 58 255 198 255 
3.598285 -56.28601 138.9519 0 0 128 255 
5.348057 -45.15058 137.1068 30 255 226 255 
3.840247 -54.82851 138.0805 0 0 188 255 
7.913306 -19.76531 129.0907 196 0 0 255 
6.414023 -39.39738 134.2638 255 252 0 255 
3.910589 -64.88351 142.274 0 0 160 255 
3.926773 -66.03496 142.2809 0 0 160 255 
7.894295 -23.01206 128.6794 200 0 0 255 
3.866131 -67.01414 141.7169 0 0 148 255 
6.398328 -39.63986 134.3207 254 255 1 255 
3.649505 -56.9808 139.5017 0 0 128 255 
3.907173 -64.39847 142.1284 0 0 160 255 
5.095166 -47.15243 137.641 0 200 255 255 
7.809051 -28.53295 128.1764 208 0 0 255 
3.812892 -60.75864 141.4108 0 0 152 255 
7.869745 -25.66165 128.3256 192 0 0 255 
6.971604 -35.75458 131.913 255 156 0 255 
3.81746 -69.30126 140.1427 0 0 140 255 
3.941012 -58.09818 140.4237 0 0 184 255 
3.916369 -67.21247 141.6887 0 0 148 255 
6.449025 -39.80759 134.5037 246 255 10 255 
7.932708 -24.87091 128.4593 196 0 0 255 
3.831721 -70.6933 139.2505 0 0 132 255 
7.931156 -26.59247 128.3247 200 0 0 255 
6.686782 -38.29924 133.5687 255 216 0 255 
8.068697 -20.22802 128.824 192 0 0 255 
7.960418 -24.56237 128.5717 200 0 0 255 
8.066408 -21.0324 128.6268 188 0 0 255 
7.945189 -26.13396 128.3348 196 0 0 255 
4.781531 -49.41815 138.1646 0 108 255 255 
5.841389 -43.29163 136.1417 114 255 142 255 
4.283536 -52.30556 138.2301 0 4 255 255 
7.66562 -30.74657 128.9951 255 0 0 255 
3.955329 -59.63178 141.0262 0 0 164 255 
3.976617 -67.45892 141.5665 0 0 144 255 
6.625902 -38.97314 134.0026 255 240 0 255 
7.96212 -27.08521 128.3057 200 0 0 255 
4.091975 -66.2486 142.2466 0 0 160 255 
7.996082 -25.25202 128.4237 196 0 0 255 
6.489323 -40.06557 134.5929 238 255 18 255 
6.985609 -36.864 132.6567 255 184 0 255 
5.755785 -43.97002 136.4796 86 255 170 255 
3.902639 -69.88222 140.0644 0 0 128 255 
4.246917 -53.04124 138.1193 0 0 240 255 
3.827048 -56.45715 139.0023 0 0 128 255 
6.135022 -42.451 135.6888 154 255 102 255 
7.248252 -35.10839 131.4879 255 136 0 255 
3.854269 -57.51932 140.0778 0 0 128 255 
4.063629 -58.42493 140.6352 0 0 176 255 
3.877549 -58.77767 141.2803 0 0 128 255 
4.205875 -66.00553 142.2654 0 0 164 255 
4.238007 -66.44385 141.9384 0 0 160 255 
5.035297 -48.34892 137.9106 0 152 255 255 
6.880304 -38.26887 133.5377 255 216 0 255 
8.160053 -19.58301 129.1624 196 0 0 255 
4.171306 -66.95805 141.6638 0 0 152 255 
3.930299 -57.15096 139.6646 0 0 128 255 
4.206234 -66.53742 141.576 0 0 156 255 
4.596872 -51.47331 138.2627 0 32 255 255 
8.217357 -23.90647 128.4616 192 0 0 255 
7.241358 -35.71359 131.9137 255 156 0 255 
4.181437 -64.18066 142.1153 0 0 160 255 
4.765401 -50.99924 138.1763 0 52 255 255 
6.699417 -39.92942 134.4904 246 255 10 255 
6.754385 -39.31636 134.1771 255 244 0 255 
3.981456 -56.64767 139.1399 0 0 128 255 
4.286081 -65.82392 142.4156 0 0 160 255 
8.194559 -26.6922 128.3785 200 0 0 255 
7.886858 -30.79046 128.9579 252 0 0 255 
7.234649 -36.37082 132.3557 255 172 0 255 
4.41151 -53.03004 138.1444 0 0 240 255 
8.297286 -22.10112 128.592 196 0 0 255 
4.01056 -56.93442 139.4256 0 0 128 255 
8.274004 -21.16998 128.7419 196 0 0 255 
8.275394 -21.6404 128.7544 200 0 0 255 
7.833572 -31.30801 129.2127 255 12 0 255 
4.158804 -69.58626 140.1729 0 0 136 255 
4.216343 -59.25452 140.9252 0 0 164 255 
4.622017 -52.01918 138.3214 0 12 255 255 
8.280548 -22.6771 128.6045 196 0 0 255 
4.0571 -56.28335 139.0063 0 0 128 255 
4.33695 -66.55767 141.564 0 0 156 255 
4.064527 -57.26059 139.7749 0 0 128 255 
7.036834 -38.08759 133.4774 255 212 0 255 
8.275088 -25.66552 128.3833 196 0 0 255 
4.274738 -57.65739 140.2901 0 0 184 255 
8.30991 -19.61628 129.2258 200 0 0 255 
4.273585 -63.83646 142.1057 0 0 156 255 
5.911885 -44.83261 136.8659 50 255 206 255 
8.304101 -23.07275 128.5837 196 0 0 255 
4.966362 -50.13097 138.1834 0 80 255 255 
7.069693 -38.19423 133.4913 255 212 0 255 
4.30881 -58.91045 140.7951 0 0 168 255 
8.309903 -24.99612 128.6405 204 0 0 255 
4.476862 -53.75941 138.0448 0 0 224 255 
4.12083 -56.64861 139.139 0 0 128 255 
4.27786 -63.10036 142.078 0 0 144 255 
4.136171 -58.32971 140.9689 0 0 128 255 
7.675722 -33.75107 130.7498 255 92 0 255 
7.348473 -36.52316 132.4362 255 172 0 255 
8.36049 -19.64758 129.36 204 0 0 255 
4.364714 -58.41595 140.6529 0 0 176 255 
8.399859 -19.89927 129.1831 204 0 0 255 
7.482314 -35.83222 132.077 255 160 0 255 
8.342192 -19.48929 131.4591 196 0 0 255 
6.678846 -41.39919 135.1359 198 255 58 255 
4.450401 -66.6246 141.6188 0 0 156 255 
6.983953 -39.34431 134.1546 255 244 0 255 
4.333414 -70.89112 139.3709 0 0 132 255 
8.342709 -19.57178 130.9518 200 0 0 255 
4.712213 -52.31855 138.2543 0 4 255 255 
6.991297 -39.66909 134.298 255 252 0 255 
5.433953 -48.08208 137.9641 0 164 255 255 
8.307731 -29.54573 128.4274 220 0 0 255 
7.003885 -39.81987 134.3888 254 255 1 255 
7.733963 -34.2704 131.0232 255 108 0 255 
8.479763 -20.49791 128.9245 196 0 0 255 
8.40809 -25.49506 128.6075 204 0 0 255 
6.639481 -42.03689 135.467 170 255 86 255 
8.434846 -19.61097 130.059 204 0 0 255 
8.27006 -30.04729 128.6822 236 0 0 255 
4.334307 -61.29322 141.6428 0 0 144 255 
4.525009 -66.29664 142.2726 0 0 160 255 
4.543373 -66.54993 141.8117 0 0 160 255 
8.472284 -19.7214 129.4438 204 0 0 255 
4.740641 -52.86302 138.245 0 0 244 255 
8.053305 -31.56606 129.3284 255 16 0 255 
4.595656 -66.42127 142.1245 0 0 160 255 
7.544192 -36.04617 132.2043 255 164 0 255 
4.555896 -65.45599 142.5017 0 0 156 255 
4.549235 -54.54243 138.1077 0 0 200 255 
8.552464 -20.75001 128.8466 196 0 0 255 
4.698655 -53.83809 138.1122 0 0 220 255 
4.564956 -58.04935 140.5185 0 0 180 255 
7.385834 -37.67495 133.1812 255 196 0 255 
4.349626 -58.51139 141.1235 0 0 128 255 
4.613705 -66.54562 141.5729 0 0 160 255 
8.014453 -33.00695 130.2834 255 68 0 255 
6.430039 -43.82369 136.3231 98 255 158 255 
4.46912 -68.78638 140.8948 0 0 136 255 
4.684895 -66.0513 142.3554 0 0 164 255 
5.049932 -51.51909 138.2755 0 32 255 255 
6.782557 -42.20283 135.5342 166 255 90 255 
4.649332 -66.93256 141.6378 0 0 156 255 
4.506012 -70.45674 139.8004 0 0 132 255 
7.231976 -39.05882 134.0061 255 236 0 255 
8.500853 -28.7887 128.4355 220 0 0 255 
7.329874 -38.52891 133.6595 255 216 0 255 
8.607868 -22.98078 128.6472 200 0 0 255 
4.428108 -56.81219 139.2867 0 0 128 255 
4.576078 -62.59878 141.9919 0 0 144 255 
5.748768 -47.68977 137.7765 0 184 255 255 
8.600426 -19.58731 132.4963 200 0 0 255 
8.696764 -21.8581 128.6871 196 0 0 255 
4.741435 -65.65048 142.4073 0 0 164 255 
6.731936 -42.67943 135.7532 146 255 110 255 
7.697115 -36.19013 132.2161 255 164 0 255 
4.696705 -63.52006 142.1326 0 0 152 255 
4.474 -56.90452 139.3736 0 0 128 255 
4.613454 -60.59405 141.4153 0 0 152 255 
4.479125 -56.62939 139.1275 0 0 128 255 
7.248764 -39.48166 134.2081 255 248 0 255 
6.015988 -46.41034 137.5384 0 236 255 255 
4.821141 -66.53156 141.8341 0 0 164 255 
8.661431 -26.60527 128.5314 208 0 0 255 
8.749021 -22.08221 128.5984 196 0 0 255 
8.042164 -33.84239 130.8046 255 92 0 255 
7.473957 -38.01294 133.4235 255 208 0 255 
4.638641 -62.27408 141.9549 0 0 140 255 
6.936564 -41.77224 135.358 182 255 74 255 
4.617331 -61.81965 141.832 0 0 140 255 
8.717466 -19.84752 129.3188 204 0 0 255 
4.650096 -69.44872 140.3107 0 0 136 255 
4.768347 -67.35094 141.7818 0 0 148 255 
8.610614 -28.30311 128.5036 220 0 0 255 
8.7229 -19.70026 129.5101 204 0 0 255 
8.768858 -19.97531 129.1878 204 0 0 255 
4.918517 -53.79945 138.1279 0 0 220 255 
8.78153 -20.41844 128.8915 196 0 0 255 
4.563597 -67.16425 142.2573 0 0 128 255 
8.06594 -34.23577 131.0203 255 104 0 255 
4.569325 -58.72453 141.284 0 0 128 255 
5.422642 -50.46305 138.3086 0 72 255 255 
7.612582 -37.6827 133.214 255 196 0 255 
4.836506 -57.95348 140.4672 0 0 184 255 
8.580745 -29.9731 128.6634 236 0 0 255 
7.204088 -40.70084 134.8481 222 255 34 255 
5.175419 -52.0472 138.3335 0 16 255 255 
7.888897 -35.55442 131.8364 255 144 0 255 
8.735887 -25.49863 128.7487 212 0 0 255 
4.983983 -66.51795 142.0575 0 0 164 255 
8.7342 -27.54282 128.5878 216 0 0 255 
6.471086 -44.94163 137.0102 46 255 210 255 
8.708797 -29.46665 128.524 224 0 0 255 
8.033504 -34.77546 131.3784 255 124 0 255 
4.893122 -58.9145 140.8278 0 0 172 255 
8.86578 -23.21129 128.6503 200 0 0 255 
4.772799 -70.21938 140.0133 0 0 132 255 
8.825272 -19.59893 132.8119 200 0 0 255 
8.935946 -22.00881 128.6438 196 0 0 255 
8.915377 -21.26951 128.7413 196 0 0 255 
8.287364 -33.27956 130.4124 255 72 0 255 
8.824589 -19.79054 131.5806 204 0 0 255 
5.005155 -66.70214 141.8139 0 0 156 255 
4.713192 -56.90776 139.3727 0 0 128 255 
8.438993 -31.85236 129.6099 255 28 0 255 
8.91716 -19.72395 129.2681 200 0 0 255 
8.421548 -32.4187 129.9435 255 48 0 255 
8.938571 -19.83439 129.2053 200 0 0 255 
8.924688 -24.13016 128.6834 204 0 0 255 
8.774764 -29.04849 128.5714 228 0 0 255 
4.746364 -57.1904 139.6689 0 0 128 255 
7.196143 -41.98636 135.4687 174 255 82 255 
5.03193 -55.11331 138.1128 0 0 188 255 
8.893726 -24.93306 128.8064 216 0 0 255 
6.856577 -43.40743 136.237 114 255 142 255 
7.79771 -37.60095 133.2049 255 196 0 255 
8.872819 -19.80272 131.0613 204 0 0 255 
8.983668 -24.33533 128.6536 204 0 0 255 
9.002327 -20.27177 128.9821 196 0 0 255 
5.075682 -54.41654 138.0675 0 0 208 255 
8.929251 -26.67527 128.5795 208 0 0 255 
9.023183 -21.67699 128.751 200 0 0 255 
4.951204 -71.21187 139.3154 0 0 132 255 
5.063043 -66.80153 141.671 0 0 156 255 
5.04416 -63.29597 142.1073 0 0 148 255 
4.981248 -62.81338 142.0976 0 0 140 255 
5.063305 -67.06247 141.7162 0 0 156 255 
8.908335 -28.13749 128.6016 224 0 0 255 
5.065264 -67.25525 141.6876 0 0 152 255 
9.056238 -23.75663 128.6171 200 0 0 255 
7.981395 -36.90957 132.6856 255 176 0 255 
5.177897 -66.15535 142.3859 0 0 164 255 
5.109543 -58.77802 140.8208 0 0 172 255 
5.182944 -66.57104 141.9132 0 0 164 255 
8.798002 -30.17819 128.7666 240 0 0 255 
9.052699 -19.68608 129.9326 196 0 0 255 
8.095704 -36.17408 132.2104 255 160 0 255 
4.893499 -57.5085 140.0166 0 0 128 255 
5.224947 -66.32293 142.3009 0 0 164 255 
9.108523 -19.83938 129.2472 200 0 0 255 
9.083393 -19.77427 129.4748 200 0 0 255 
5.06812 -69.77798 140.2908 0 0 132 255 
5.164354 -63.75064 142.1141 0 0 160 255 
9.078109 -19.84932 130.7114 204 0 0 255 
6.180698 -47.86089 137.8993 0 176 255 255 
9.14535 -22.51936 128.698 200 0 0 255 
5.200544 -55.03641 138.1296 0 0 192 255 
7.188385 -42.74992 135.9193 142 255 114 255 
9.126797 -19.76869 129.3606 200 0 0 255 
9.113122 -25.42898 128.719 208 0 0 255 
4.954555 -56.90497 139.372 0 0 128 255 
6.523732 -45.93059 137.5459 2 255 254 255 
5.806747 -50.70724 138.2919 0 68 255 255 
4.966956 -56.599 139.1505 0 0 128 255 
7.343055 -42.12852 135.6273 166 255 90 255 
8.358041 -34.62423 131.2254 255 112 0 255 
9.04873 -29.10453 128.4382 220 0 0 255 
5.19575 -67.73863 141.492 0 0 148 255 
5.265132 -55.01387 138.1094 0 0 192 255 
5.007155 -57.81522 140.3637 0 0 128 255 
5.253121 -67.45655 141.6368 0 0 152 255 
5.464695 -52.7799 138.2469 0 0 252 255 
5.028009 -56.82658 139.3002 0 0 128 255 
9.25383 -21.20769 128.784 196 0 0 255 
9.090922 -29.44189 128.5305 224 0 0 255 
6.910049 -44.51964 136.8051 70 255 186 255 
5.319997 -57.97633 140.4928 0 0 184 255 
8.177489 -36.57495 132.5163 255 172 0 255 
6.727681 -45.46741 137.2957 26 255 230 255 
6.439619 -47.26167 137.7859 0 204 255 255 
5.443163 -53.46452 138.2224 0 0 232 255 
9.270506 -20.33223 129.0375 200 0 0 255 
5.558855 -52.36506 138.3141 0 8 255 255 
8.3341 -35.197 131.7011 255 136 0 255 
9.179233 -19.89612 131.1199 204 0 0 255 
5.25679 -59.84175 141.1883 0 0 164 255 
9.253676 -24.81731 128.789 212 0 0 255 
9.267809 -19.66481 133.5424 204 0 0 255 
9.233905 -25.87985 128.6483 208 0 0 255 
9.29774 -20.06284 129.1622 200 0 0 255 
8.846595 -31.58191 129.4233 255 16 0 255 
9.291223 -19.9054 129.3627 204 0 0 255 
7.996387 -38.51454 133.8286 255 224 0 255 
9.388329 -22.37681 128.6414 196 0 0 255 
8.602345 -34.25704 131.0184 255 100 0 255 
5.151073 -57.19696 139.6718 0 0 128 255 
5.328166 -60.63902 141.4669 0 0 156 255 
9.348593 -20.09402 129.2026 204 0 0 255 
9.315292 -26.76107 128.6485 212 0 0 255 
6.946007 -44.99386 137.0989 46 255 210 255 
7.517842 -42.28463 135.6547 166 255 90 255 
5.445211 -64.15049 142.1928 0 0 164 255 
5.334373 -69.97163 140.2283 0 0 132 255 
9.399927 -22.68247 128.6832 200 0 0 255 
5.537456 -65.89599 142.5802 0 0 164 255 
9.365627 -19.64051 132.6539 196 0 0 255 
8.391382 -36.0808 132.2186 255 164 0 255 
9.372852 -19.87471 129.5351 204 0 0 255 
7.67172 -41.62229 135.3471 190 255 66 255 
8.77628 -33.36923 130.4837 255 76 0 255 
8.478809 -35.5597 131.8339 255 144 0 255 
5.521338 -57.49618 140.2564 0 0 188 255 
9.345563 -19.80545 131.9041 200 0 0 255 
9.439873 -23.98529 128.7182 204 0 0 255 
5.608235 -66.23359 142.361 0 0 168 255 
6.662508 -47.00121 137.856 0 212 255 255 
5.544566 -64.84931 142.3585 0 0 164 255 
7.272676 -44.00119 136.5721 94 255 162 255 
7.947182 -39.88614 134.5715 246 255 10 255 
9.332739 -19.92773 131.2104 204 0 0 255 
5.51324 -67.47116 141.6779 0 0 152 255 
5.641073 -65.99828 142.502 0 0 164 255 
5.282176 -58.97137 141.4581 0 0 128 255 
5.443545 -70.75655 139.6942 0 0 132 255 
7.909954 -40.58075 134.8699 226 255 30 255 
9.45314 -19.92896 130.7109 204 0 0 255 
7.708779 -42.00547 135.4737 178 255 78 255 
5.501388 -68.22914 141.2086 0 0 148 255 
9.489518 -19.89154 129.4032 200 0 0 255 
5.583266 -59.0473 140.8409 0 0 176 255 
9.427515 -26.36556 128.63 208 0 0 255 
5.476535 -69.29636 140.5692 0 0 140 255 
7.823542 -41.21936 135.1826 202 255 54 255 
8.456405 -36.46242 132.4275 255 168 0 255 
9.576321 -20.43989 128.9802 196 0 0 255 
5.593604 -64.31666 142.2945 0 0 164 255 
9.522615 -19.88933 129.594 204 0 0 255 
5.365448 -67.23573 142.3342 0 0 128 255 
9.569695 -20.11099 129.2087 204 0 0 255 
5.664113 -65.69431 142.6812 0 0 156 255 
5.384472 -57.46196 139.9638 0 0 128 255 
5.387117 -67.70078 142.2057 0 0 128 255 
9.308088 -30.29136 128.8405 240 0 0 255 
5.636074 -59.47663 141.0248 0 0 172 255 
5.690589 -66.86783 141.6692 0 0 160 255 
5.761086 -66.57778 142.2724 0 0 160 255 
5.995013 -51.95407 138.4731 0 20 255 255 
5.710974 -65.95215 142.6687 0 0 160 255 
5.413375 -58.33992 140.9713 0 0 128 255 
5.416638 -57.68493 140.216 0 0 128 255 
5.602818 -60.63187 141.492 0 0 156 255 
8.728149 -35.11841 131.5999 255 132 0 255 
5.73308 -65.2477 142.5501 0 0 160 255 
5.717896 -55.33575 138.1644 0 0 188 255 
5.784515 -66.43752 142.4114 0 0 160 255 
9.62165 -20.03673 129.4202 208 0 0 255 
5.572369 -62.71024 142.2229 0 0 136 255 
8.934376 -34.09853 130.9174 255 96 0 255 
5.75494 -57.48725 140.2275 0 0 188 255 
9.574568 -19.82829 131.7184 200 0 0 255 
9.657905 -19.75043 132.34 196 0 0 255 
5.810318 -53.61292 138.4464 0 0 224 255 
5.783422 -65.83795 142.6895 0 0 160 255 
5.737032 -67.50185 141.6962 0 0 152 255 
5.731702 -63.61272 142.3072 0 0 148 255 
9.697178 -20.26839 129.1501 200 0 0 255 
7.043826 -46.16764 137.6318 0 248 255 255 
5.695122 -68.77811 140.9189 0 0 144 255 
9.701492 -23.99329 128.7486 204 0 0 255 
9.60638 -19.88212 131.3445 200 0 0 255 
9.635766 -26.72947 128.6546 208 0 0 255 
5.874537 -66.67787 142.0713 0 0 160 255 
7.400755 -44.63766 136.8666 66 255 190 255 
9.089185 -33.33741 130.5108 255 76 0 255 
5.792558 -67.60436 141.5542 0 0 152 255 
5.851213 -58.68914 140.8034 0 0 176 255 
5.848393 -59.08912 140.9196 0 0 172 255 
8.717993 -36.08806 132.1818 255 160 0 255 
5.586752 -56.79333 139.2957 0 0 128 255 
9.768741 -22.93473 128.7408 200 0 0 255 
9.745028 -19.84762 130.9611 200 0 0 255 
9.698043 -27.11322 128.6765 212 0 0 255 
9.768218 -20.06498 129.4907 208 0 0 255 
5.821501 -60.32902 141.4148 0 0 156 255 
8.478832 -38.41404 133.716 255 216 0 255 
9.753467 -19.82475 131.9226 200 0 0 255 
9.853388 -19.48424 133.642 192 0 0 255 
5.633023 -56.98769 139.469 0 0 128 255 
9.631661 -29.39726 128.5815 224 0 0 255 
5.642648 -56.59818 139.2279 0 0 128 255 
9.867014 -22.00334 128.8087 200 0 0 255 
9.128413 -33.70616 130.743 255 88 0 255 
5.941388 -66.8724 141.7108 0 0 160 255 
6.182732 -52.15198 138.6907 0 12 255 255 
8.466967 -38.81841 133.9237 255 228 0 255 
9.567424 -30.34345 128.8702 240 0 0 255 
5.678081 -58.63607 141.2658 0 0 128 255 
5.883777 -63.92409 142.3607 0 0 152 255 
6.546593 -50.27678 138.5229 0 84 255 255 
5.959242 -67.08871 141.688 0 0 160 255 
5.876762 -69.21416 140.5298 0 0 144 255 
9.892718 -20.36049 129.0583 196 0 0 255 
6.006414 -58.32537 140.6442 0 0 180 255 
6.025576 -54.29599 138.3597 0 0 208 255 
6.157831 -52.71156 138.6766 0 0 248 255 
5.949805 -55.46183 138.3325 0 0 180 255 
9.807658 -26.63908 128.7071 212 0 0 255 
9.900888 -20.05909 129.548 208 0 0 255 
9.919988 -20.12464 129.3524 204 0 0 255 
6.002963 -65.75854 142.8018 0 0 152 255 
6.041935 -59.10032 140.9555 0 0 172 255 
6.082425 -66.68121 142.375 0 0 156 255 
8.049421 -42.40435 135.6927 162 255 94 255 
9.969833 -19.58993 132.782 188 0 0 255 
9.187251 -34.40535 131.1661 255 108 0 255 
8.165771 -41.7886 135.4098 186 255 70 255 
7.581587 -45.13177 137.1152 46 255 210 255 
5.973712 -69.4607 140.3138 0 0 144 255 
9.915663 -19.90702 131.2086 200 0 0 255 
9.994716 -22.57276 128.7447 196 0 0 255 
5.814632 -56.8017 139.3144 0 0 128 255 
9.963826 -19.95258 129.7604 204 0 0 255 
7.29328 -46.49955 137.7075 0 240 255 255 
9.990554 -23.12647 128.7398 200 0 0 255 
5.834329 -58.33478 140.9772 0 0 128 255 
5.838468 -58.08668 140.6897 0 0 128 255 
6.106773 -66.91172 141.7534 0 0 160 255 
6.021293 -60.36967 141.4758 0 0 156 255 
6.089984 -67.40687 141.7673 0 0 152 255 
6.110456 -54.98942 138.3574 0 0 192 255 
8.567191 -39.45005 134.3238 255 248 0 255 
7.876906 -43.8957 136.5655 98 255 158 255 
5.872659 -56.62157 139.2615 0 0 128 255 
7.064731 -48.24176 138.0591 0 168 255 255 
10.04096 -20.10213 129.3354 204 0 0 255 
9.808726 -30.26083 128.8379 240 0 0 255 
9.475398 -32.99953 130.3238 255 64 0 255 
6.110345 -58.0507 140.5771 0 0 176 255 
6.036844 -60.98071 141.7134 0 0 144 255 
6.376132 -52.30832 138.7111 0 8 255 255 
10.03763 -24.12305 128.7577 204 0 0 255 
9.059127 -35.79664 132.0241 255 152 0 255 
6.209128 -66.19448 142.6306 0 0 164 255 
5.916558 -56.43079 139.2908 0 0 128 255 
6.198065 -66.792 141.9095 0 0 156 255 
9.434779 -33.5184 130.66 255 80 0 255 
10.11772 -20.57445 128.9812 196 0 0 255 
10.11768 -22.37446 128.7364 196 0 0 255 
9.581142 -32.41067 129.9753 255 44 0 255 
6.259917 -66.76638 142.1974 0 0 156 255 
10.12371 -19.63459 132.5332 188 0 0 255 
10.0841 -19.77554 131.8675 192 0 0 255 
9.997631 -28.97926 128.612 224 0 0 255 
8.998548 -36.8138 132.6864 255 180 0 255 
6.160017 -59.63097 141.2227 0 0 160 255 
5.978675 -57.594 140.1283 0 0 128 255 
10.10928 -19.94869 130.2619 200 0 0 255 
6.165608 -63.87745 142.4572 0 0 144 255 
10.11244 -20.00592 129.5404 204 0 0 255 
8.872321 -37.86406 133.3498 255 208 0 255 
5.989385 -56.81093 139.3422 0 0 128 255 
10.1901 -19.66667 132.2851 188 0 0 255 
10.0263 -27.77886 128.7627 224 0 0 255 
8.501283 -40.66492 134.9065 226 255 30 255 
9.42439 -34.04224 130.9941 255 96 0 255 
7.321384 -47.4461 137.9691 0 200 255 255 
6.017575 -58.50941 141.1738 0 0 128 255 
7.153147 -48.94269 138.3092 0 136 255 255 
6.317228 -65.42522 142.6412 0 0 164 255 
10.23691 -22.76978 128.6789 196 0 0 255 
10.29592 -19.61821 133.4386 192 0 0 255 
7.856768 -44.81047 136.9455 62 255 194 255 
10.18645 -24.5628 128.7661 204 0 0 255 
9.167599 -36.21459 132.2891 255 164 0 255 
6.30171 -64.44315 142.519 0 0 156 255 
10.22182 -20.2814 129.177 200 0 0 255 
6.406748 -66.76276 142.1189 0 0 160 255 
8.710879 -40.17145 134.6488 242 255 14 255 
10.08701 -28.45313 128.7283 224 0 0 255 
10.18705 -19.80423 131.4195 192 0 0 255 
6.106099 -58.90292 141.4826 0 0 128 255 
9.518382 -34.3095 131.0991 255 100 0 255 
10.24249 -19.78672 131.8374 192 0 0 255 
10.13882 -29.24276 128.66 224 0 0 255 
6.403389 -58.75394 140.8492 0 0 176 255 
6.39954 -58.44738 140.7519 0 0 176 255 
10.25338 -20.35584 129.315 208 0 0 255 
8.451388 -42.139 135.6353 170 255 86 255 
6.455861 -66.03559 142.5405 0 0 168 255 
6.429092 -58.62537 140.8338 0 0 172 255 
6.434023 -66.79677 141.9234 0 0 156 255 
10.27015 -19.86261 130.8729 196 0 0 255 
10.28187 -23.32101 128.6817 196 0 0 255 
7.817006 -45.41782 137.3438 34 255 222 255 
6.431584 -58.18481 140.6556 0 0 176 255 
10.17439 -29.79524 128.7542 232 0 0 255 
6.43135 -55.2873 138.3503 0 0 188 255 
10.3091 -20.16834 129.4516 208 0 0 255 
10.36075 -19.76196 132.9371 196 0 0 255 
6.192213 -56.527 139.3147 0 0 128 255 
10.27212 -25.13728 128.9199 216 0 0 255 
6.562629 -53.5603 138.4716 0 0 232 255 
8.446647 -42.54471 135.7872 158 255 98 255 
6.477982 -66.89223 141.7326 0 0 164 255 
6.459573 -67.75928 141.4999 0 0 156 255 
6.372545 -70.40514 139.8492 0 0 140 255 
6.230954 -58.84711 141.4595 0 0 128 255 
10.29683 -25.72297 128.9016 216 0 0 255 
6.235174 -58.49503 141.179 0 0 128 255 
9.746098 -33.61727 130.7027 255 80 0 255 
8.930918 -39.33538 134.1947 255 244 0 255 
6.522619 -54.75663 138.3275 0 0 200 255 
9.380309 -36.44784 132.3857 255 168 0 255 
9.436658 -35.98552 132.1072 255 152 0 255 
6.506701 -67.23986 141.7802 0 0 160 255 
10.36562 -24.65367 128.8832 212 0 0 255 
6.446033 -64.72234 142.5954 0 0 156 255 
6.474021 -60.31931 141.4882 0 0 156 255 
10.38298 -23.67059 128.7145 200 0 0 255 
10.33736 -19.88969 131.3328 196 0 0 255 
7.650755 -47.24431 137.9687 0 208 255 255 
10.40819 -20.03978 129.6427 204 0 0 255 
6.725073 -54.04655 138.2537 0 0 224 255 
7.949338 -45.71634 137.4652 22 255 234 255 
6.427214 -62.24482 142.2657 0 0 132 255 
6.596186 -57.34922 139.9615 0 0 180 255 
10.41789 -20.10264 129.928 204 0 0 255 
6.615982 -58.79948 140.9212 0 0 172 255 
6.549211 -59.96563 141.4292 0 0 156 255 
7.235162 -50.00979 138.5741 0 96 255 255 
10.21354 -31.08287 129.2431 255 0 0 255 
6.633853 -58.42033 140.7654 0 0 176 255 
10.49266 -23.19393 128.7385 196 0 0 255 
6.577432 -68.2481 141.1225 0 0 156 255 
10.51323 -20.98274 129.0117 200 0 0 255 
6.673838 -66.78635 142.125 0 0 160 255 
10.48524 -19.96655 132.1107 200 0 0 255 
9.192277 -38.73575 133.8642 255 224 0 255 
9.871327 -34.15496 130.9708 255 92 0 255 
6.633877 -67.24703 141.7731 0 0 160 255 
6.615612 -65.21783 142.7297 0 0 156 255 
6.635805 -65.69964 142.7691 0 0 160 255 
6.409616 -57.13065 139.647 0 0 128 255 
10.4728 -20.00893 130.7895 200 0 0 255 
10.46284 -25.43742 128.997 220 0 0 255 
6.511004 -62.51488 142.3659 0 0 132 255 
10.47177 -25.99926 128.9463 220 0 0 255 
6.439863 -56.48985 139.377 0 0 128 255 
6.622693 -68.79226 140.808 0 0 152 255 
6.784858 -54.64479 138.3245 0 0 208 255 
9.494744 -36.65592 132.5302 255 176 0 255 
10.59361 -20.13597 129.4008 200 0 0 255 
8.974887 -40.72461 134.9773 222 255 34 255 
10.57218 -24.20012 128.8604 208 0 0 255 
8.463682 -43.97739 136.6091 98 255 158 255 
10.62963 -20.28039 129.2933 204 0 0 255 
10.68197 -19.69462 133.9268 196 0 0 255 
10.66132 -20.34357 129.073 196 0 0 255 
10.38767 -30.65746 129.1167 248 0 0 255 
7.057759 -52.31551 138.6255 0 12 255 255 
10.5139 -28.30694 128.8622 228 0 0 255 
6.852548 -65.9389 142.5101 0 0 176 255 
6.955976 -53.68543 138.4171 0 0 232 255 
6.797161 -66.79228 141.7921 0 0 160 255 
6.801949 -65.82211 142.7438 0 0 164 255 
7.197098 -51.62717 138.6822 0 36 255 255 
6.831116 -58.77615 140.9381 0 0 172 255 
10.67181 -19.88503 132.7732 196 0 0 255 
9.269615 -39.2709 134.1422 255 240 0 255 
9.539131 -37.33825 132.9223 255 188 0 255 
7.192548 -51.9852 138.6658 0 24 255 255 
6.744843 -59.97399 141.4565 0 0 156 255 
10.12878 -33.49401 130.604 255 76 0 255 
6.861274 -66.67901 141.9868 0 0 164 255 
6.788048 -67.35971 141.6627 0 0 164 255 
6.724318 -61.45596 141.9509 0 0 144 255 
10.0655 -33.8968 130.843 255 88 0 255 
8.459889 -44.59645 136.8535 74 255 182 255 
6.592275 -57.32293 139.8563 0 0 128 255 
8.144245 -46.34301 137.7206 0 248 255 255 
6.600903 -57.65865 140.2372 0 0 128 255 
6.832156 -67.56747 141.5615 0 0 160 255 
6.619938 -57.1287 139.6548 0 0 128 255 
9.800573 -35.81705 131.9371 255 144 0 255 
9.761585 -36.44795 132.3384 255 164 0 255 
6.6519 -56.97863 139.5124 0 0 128 255 
10.72689 -25.09792 129.0356 220 0 0 255 
7.003042 -54.6044 138.3033 0 0 208 255 
10.8371 -21.12542 128.8932 192 0 0 255 
6.953767 -57.94216 140.6164 0 0 176 255 
