ply
format ascii 1.0
comment VCGLIB generated
element vertex 1173
property float x
property float y
property float z
property uchar red
property uchar green
property uchar blue
property uchar alpha
element face 0
property list uchar int vertex_indices
end_header
-26.03367 17.36016 209.1413 0 0 140 255 
-26.02822 11.84601 204.3247 0 0 136 255 
-26.02519 3.267407 196.8889 0 0 148 255 
-26.00725 32.96995 222.7507 0 0 140 255 
-26.00391 16.19012 208.1281 0 0 132 255 
-26.00182 24.87794 215.6696 0 0 144 255 
-25.99432 4.988657 198.3867 0 0 140 255 
-25.98496 12.35769 204.777 0 0 132 255 
-25.97555 35.32106 222.596 0 0 136 255 
-25.96099 1.461412 195.327 0 0 144 255 
-25.94732 8.78656 201.6878 0 0 132 255 
-25.94691 16.48594 208.3994 0 0 136 255 
-25.94388 13.62949 205.8992 0 0 132 255 
-25.93806 32.90831 222.6872 0 0 140 255 
-25.92683 2.136826 195.9207 0 0 148 255 
-25.92402 33.73158 223.1211 0 0 140 255 
-25.91994 20.67762 212.0369 0 0 132 255 
-25.91458 33.44242 223.1167 0 0 140 255 
-25.91066 27.55891 218.026 0 0 140 255 
-25.90664 19.88404 211.3566 0 0 132 255 
-25.89408 28.45512 218.8143 0 0 140 255 
-25.88348 7.095722 200.2489 0 0 128 255 
-25.87652 30.30793 220.4468 0 0 136 255 
-25.86066 13.35417 205.6789 0 0 132 255 
-25.84813 29.00337 219.3057 0 0 140 255 
-25.8456 32.28254 222.0879 0 0 144 255 
-25.8343 16.69601 208.6115 0 0 132 255 
-25.82596 15.87033 207.8931 0 0 132 255 
-25.81579 32.37882 222.1555 0 0 140 255 
-25.81098 4.607678 198.0989 0 0 136 255 
-25.80849 1.157195 195.1005 0 0 148 255 
-25.80194 26.22372 216.8894 0 0 148 255 
-25.79835 35.80387 222.4325 0 0 148 255 
-25.79231 32.63016 222.3034 0 0 140 255 
-25.78794 10.51007 203.2377 0 0 132 255 
-25.78263 3.167207 196.8559 0 0 148 255 
-25.7727 17.17296 209.0436 0 0 136 255 
-25.76885 8.423349 201.4092 0 0 132 255 
-25.76383 10.84942 203.536 0 0 132 255 
-25.75811 24.08924 215.0448 0 0 132 255 
-25.75406 6.424354 199.6971 0 0 132 255 
-25.75321 13.90407 206.1873 0 0 136 255 
-25.7414 9.671554 202.5219 0 0 132 255 
-25.73555 29.64947 219.8998 0 0 140 255 
-25.73343 19.95039 211.4522 0 0 132 255 
-25.71665 10.01355 202.8239 0 0 132 255 
-25.71312 8.011009 201.0706 0 0 136 255 
-25.71123 20.32265 211.7799 0 0 132 255 
-25.69373 20.69622 212.1131 0 0 132 255 
-25.68772 25.58277 216.3561 0 0 144 255 
-25.68501 11.62965 204.2227 0 0 132 255 
-25.68478 16.2265 208.2362 0 0 132 255 
-25.68348 33.17688 223.0461 0 0 144 255 
-25.67695 7.010412 200.2268 0 0 128 255 
-25.6715 26.88812 217.4992 0 0 136 255 
-25.64791 12.42868 204.925 0 0 132 255 
-25.64157 32.42132 222.2242 0 0 144 255 
-25.63576 4.030471 197.6389 0 0 140 255 
-25.62587 8.962519 201.9273 0 0 128 255 
-25.61291 1.842419 195.7395 0 0 144 255 
-25.60525 4.915541 198.4156 0 0 136 255 
-25.59367 19.20325 210.8433 0 0 132 255 
-25.57689 24.34021 215.3031 0 0 132 255 
-25.56448 6.807457 200.0766 0 0 128 255 
-25.56066 21.38525 212.7503 0 0 136 255 
-25.55953 18.61359 210.3381 0 0 132 255 
-25.54228 8.538343 201.5704 0 0 132 255 
-25.53973 7.218304 200.4403 0 0 128 255 
-25.53341 16.71881 208.7043 0 0 132 255 
-25.52884 30.53662 220.7341 0 0 136 255 
-25.5214 2.592805 196.4171 0 0 148 255 
-25.51694 29.89569 220.1712 0 0 132 255 
-25.51145 2.172268 196.0532 0 0 148 255 
-25.50225 14.5846 206.8481 0 0 136 255 
-25.486 11.71883 204.3466 0 0 132 255 
-25.48555 32.9375 222.858 0 0 144 255 
-25.48474 27.02527 217.6613 0 0 136 255 
-25.48363 32.10437 222.0414 0 0 148 255 
-25.48228 10.52872 203.3259 0 0 132 255 
-25.47725 0.777146 194.8489 0 0 148 255 
-25.47193 2.827465 196.6322 0 0 148 255 
-25.47112 23.17275 214.3191 0 0 136 255 
-25.46283 30.76427 220.9474 0 0 136 255 
-25.45541 14.99325 207.2177 0 0 132 255 
-25.44518 13.61866 206.0122 0 0 132 255 
-25.43721 3.513903 197.2357 0 0 136 255 
-25.43051 18.18138 209.993 0 0 132 255 
-25.42662 28.51161 218.9779 0 0 136 255 
-25.41727 19.87476 211.461 0 0 136 255 
-25.40689 29.35238 219.7191 0 0 136 255 
-25.39386 32.91241 222.8465 0 0 144 255 
-25.38911 32.37193 222.2518 0 0 148 255 
-25.37941 27.43816 218.0461 0 0 136 255 
-25.36913 9.049461 202.0681 0 0 136 255 
-25.35999 34.33167 223.0635 0 0 160 255 
-25.35005 32.49327 222.328 0 0 144 255 
-25.34188 22.17465 213.4871 0 0 132 255 
-25.338 15.89479 208.0298 0 0 132 255 
-25.32908 35.25544 222.7205 0 0 164 255 
-25.32676 14.72442 207.0142 0 0 132 255 
-25.32162 31.80381 221.8455 0 0 144 255 
-25.31942 34.03682 223.1538 0 0 156 255 
-25.31196 16.75976 208.792 0 0 132 255 
-25.30456 33.75829 223.215 0 0 148 255 
-25.29524 28.80035 219.263 0 0 136 255 
-25.2936 4.426836 198.0641 0 0 132 255 
-25.28769 6.965703 200.2817 0 0 132 255 
-25.28602 23.75535 214.8594 0 0 132 255 
-25.28079 19.27001 210.9736 0 0 132 255 
-25.27372 17.65103 209.5743 0 0 132 255 
-25.26745 12.6134 205.1855 0 0 132 255 
-25.2642 7.991026 201.167 0 0 132 255 
-25.25833 22.69238 213.9532 0 0 132 255 
-25.25085 11.05031 203.8303 0 0 132 255 
-25.23518 30.09914 220.4201 0 0 132 255 
-25.23307 32.17741 222.1516 0 0 148 255 
-25.22225 28.29896 218.8398 0 0 140 255 
-25.21132 36.27985 222.3288 0 0 160 255 
-25.20177 10.73053 203.5673 0 0 132 255 
-25.19249 21.2729 212.7429 0 0 132 255 
-25.18724 3.844133 197.5814 0 0 132 255 
-25.1631 29.62946 220.0238 0 0 136 255 
-25.15735 12.27924 204.9197 0 0 132 255 
-25.15655 15.5301 207.7575 0 0 132 255 
-25.1532 11.98352 204.6604 0 0 132 255 
-25.14562 22.84683 214.1106 0 0 132 255 
-25.13803 19.57749 211.2692 0 0 132 255 
-25.13083 7.245369 200.5622 0 0 128 255 
-25.12776 19.29276 211.0276 0 0 132 255 
-25.11982 32.36318 222.3047 0 0 144 255 
-25.1102 25.2131 216.1718 0 0 140 255 
-25.10954 6.277786 199.7244 0 0 128 255 
-25.09882 6.56989 199.9825 0 0 128 255 
-25.09328 35.83265 222.5236 0 0 160 255 
-25.0888 33.22077 223.187 0 0 144 255 
-25.08449 16.18206 208.3392 0 0 132 255 
-25.08226 34.42368 223.0694 0 0 148 255 
-25.07685 19.73832 211.4235 0 0 132 255 
-25.07197 14.30646 206.7102 0 0 136 255 
-25.05751 9.552878 202.5794 0 0 132 255 
-25.05494 23.48896 214.6799 0 0 136 255 
-25.03257 5.606738 199.1569 0 0 136 255 
-25.02746 29.30272 219.7682 0 0 132 255 
-25.00988 1.602175 195.6737 0 0 136 255 
-25.0081 17.0339 209.1038 0 0 132 255 
-25.00375 14.64208 207.0224 0 0 132 255 
-24.99664 33.78878 223.2514 0 0 144 255 
-24.99405 19.1049 210.8987 0 0 132 255 
-24.99323 32.57188 222.4595 0 0 128 255 
-24.99098 23.00232 214.2771 0 0 136 255 
-24.98374 10.03166 203.0123 0 0 132 255 
-24.98269 18.5131 210.3922 0 0 128 255 
-24.97071 26.61965 217.428 0 0 136 255 
-24.96218 3.074421 196.9681 0 0 136 255 
-24.95765 16.61403 208.7469 0 0 128 255 
-24.94819 12.92 205.5292 0 0 132 255 
-24.9447 5.279936 198.8934 0 0 132 255 
-24.93711 10.46888 203.4039 0 0 132 255 
-24.93402 15.5917 207.8633 0 0 132 255 
-24.92517 28.61411 219.189 0 0 136 255 
-24.90755 33.19791 223.2088 0 0 144 255 
-24.90353 29.93447 220.3569 0 0 136 255 
-24.89083 17.31027 209.3718 0 0 132 255 
-24.88298 18.32153 210.2495 0 0 128 255 
-24.88051 27.53828 218.2518 0 0 136 255 
-24.87817 3.545939 197.3963 0 0 132 255 
-24.87467 23.75577 214.9533 0 0 136 255 
-24.86874 7.893217 201.1822 0 0 132 255 
-24.85683 27.13178 217.9014 0 0 136 255 
-24.85488 8.241447 201.486 0 0 128 255 
-24.84582 1.101657 195.2776 0 0 140 255 
-24.83247 30.72521 221.065 0 0 144 255 
-24.82405 2.347889 196.3736 0 0 140 255 
-24.82234 17.9102 209.9077 0 0 128 255 
-24.81381 15.92524 208.179 0 0 132 255 
-24.80927 1.665766 195.7763 0 0 132 255 
-24.7971 23.61975 214.852 0 0 136 255 
-24.78917 8.969417 202.1345 0 0 136 255 
-24.78538 36.60357 222.2543 0 0 160 255 
-24.78393 22.75686 214.1133 0 0 132 255 
-24.76482 26.01061 216.9459 0 0 148 255 
-24.76176 4.034684 197.8498 0 0 128 255 
-24.76136 22.65502 214.0318 0 0 132 255 
-24.75577 32.64484 222.6373 0 0 144 255 
-24.75153 6.693553 200.1739 0 0 136 255 
-24.74677 32.19788 222.2713 0 0 152 255 
-24.74178 11.43839 204.2872 0 0 132 255 
-24.73529 29.0824 219.6451 0 0 132 255 
-24.7337 33.48839 223.3094 0 0 144 255 
-24.72576 12.42982 205.1617 0 0 132 255 
-24.72108 16.34043 208.5625 0 0 132 255 
-24.71458 13.63068 206.199 0 0 136 255 
-24.70629 32.53022 222.4905 0 0 152 255 
-24.67727 35.20689 222.8234 0 0 152 255 
-24.66262 32.38531 222.4129 0 0 148 255 
-24.65445 34.38757 223.14 0 0 152 255 
-24.65026 36.11753 222.4653 0 0 156 255 
-24.6485 20.44643 212.1522 0 0 128 255 
-24.64285 33.74924 223.3037 0 0 148 255 
-24.64117 32.36097 222.4034 0 0 148 255 
-24.62991 8.525634 201.7867 0 0 128 255 
-24.62448 2.152392 196.2511 0 0 136 255 
-24.5937 14.7055 207.177 0 0 132 255 
-24.59134 2.606369 196.6548 0 0 136 255 
-24.5873 32.67081 222.7181 0 0 144 255 
-24.57079 35.54263 222.7043 0 0 148 255 
-24.56882 1.893152 196.038 0 0 132 255 
-24.56305 18.51067 210.4907 0 0 128 255 
-24.56192 33.50744 223.3324 0 0 144 255 
-24.56161 3.238136 197.2076 0 0 128 255 
-24.55946 12.71548 205.4462 0 0 132 255 
-24.55334 19.72103 211.5347 0 0 132 255 
-24.54943 13.92888 206.5068 0 0 132 255 
-24.54835 7.043374 200.5249 0 0 132 255 
-24.53665 22.38612 213.853 0 0 132 255 
-24.53557 15.38783 207.7791 0 0 132 255 
-24.53364 13.33267 205.9815 0 0 132 255 
-24.52178 9.337802 202.5156 0 0 132 255 
-24.51216 25.5824 216.6329 0 0 144 255 
-24.5092 3.975194 197.8607 0 0 128 255 
-24.50755 23.62162 214.9243 0 0 136 255 
-24.4979 17.36717 209.5149 0 0 132 255 
-24.47665 16.09966 208.4093 0 0 128 255 
-24.47548 10.9543 203.9359 0 0 132 255 
-24.47317 6.391331 199.9763 0 0 132 255 
-24.47019 3.635777 197.5735 0 0 128 255 
-24.46364 1.859347 196.0341 0 0 132 255 
-24.46012 30.77221 221.1906 0 0 140 255 
-24.45837 14.48166 207.0148 0 0 132 255 
-24.45727 26.20398 217.1873 0 0 144 255 
-24.45695 1.837692 196.018 0 0 132 255 
-24.44598 5.786026 199.4534 0 0 128 255 
-24.43964 29.95273 220.4854 0 0 132 255 
-24.41406 27.64913 218.46 0 0 136 255 
-24.40812 36.15511 222.4818 0 0 148 255 
-24.40171 5.213652 198.968 0 0 128 255 
-24.39154 3.550091 197.5181 0 0 128 255 
-24.38644 3.124093 197.1534 0 0 128 255 
-24.37851 24.19483 215.4596 0 0 132 255 
-24.37773 32.68937 222.7989 0 0 136 255 
-24.36389 33.50035 223.3578 0 0 136 255 
-24.36021 29.52121 220.1231 0 0 132 255 
-24.35463 25.18618 216.3274 0 0 144 255 
-24.35185 33.21786 223.3107 0 0 136 255 
-24.35128 36.39179 222.3909 0 0 148 255 
-24.33928 5.437696 199.1767 0 0 128 255 
-24.3316 6.742618 200.3155 0 0 136 255 
-24.31781 11.14199 204.1355 0 0 136 255 
-24.31486 4.875789 198.7006 0 0 132 255 
-24.31058 32.15163 222.3323 0 0 140 255 
-24.30179 3.813368 197.7677 0 0 128 255 
-24.29435 1.300906 195.5797 0 0 132 255 
-24.29305 25.76989 216.8474 0 0 144 255 
-24.27354 3.992331 197.9341 0 0 128 255 
-24.27027 13.17962 205.9099 0 0 132 255 
-24.262 32.39387 222.4963 0 0 140 255 
-24.25756 11.98166 204.887 0 0 132 255 
-24.24594 31.90627 222.1662 0 0 144 255 
-24.24495 1.95618 196.1745 0 0 132 255 
-24.24326 34.09768 223.2816 0 0 136 255 
-24.23878 32.50512 222.5909 0 0 140 255 
-24.22348 23.43226 214.8288 0 0 132 255 
-24.21882 2.258537 196.4455 0 0 136 255 
-24.21357 22.5347 214.0567 0 0 128 255 
-24.21022 10.44531 203.558 0 0 132 255 
-24.20563 10.13567 203.2874 0 0 132 255 
-24.20299 19.82733 211.7151 0 0 132 255 
-24.20205 12.707 205.5175 0 0 132 255 
-24.20044 26.40367 217.4222 0 0 136 255 
-24.19656 15.07571 207.5878 0 0 132 255 
-24.19132 1.251284 195.5623 0 0 128 255 
-24.18863 20.69567 212.4798 0 0 132 255 
-24.17537 32.36269 222.4999 0 0 144 255 
-24.17 22.18895 213.7719 0 0 132 255 
-24.16479 4.283745 198.2214 0 0 128 255 
-24.15357 1.89919 196.1498 0 0 132 255 
-24.15107 12.41523 205.2834 0 0 132 255 
-24.14645 5.033688 198.8781 0 0 128 255 
-24.14113 21.72265 213.3791 0 0 132 255 
-24.13471 34.88953 223.0196 0 0 144 255 
-24.12987 11.38852 204.3963 0 0 132 255 
-24.12654 18.24971 210.3689 0 0 128 255 
-24.11119 12.83709 205.6468 0 0 132 255 
-24.10703 13.5502 206.2811 0 0 136 255 
-24.09946 1.764753 196.0468 0 0 132 255 
-24.09773 13.33024 206.0883 0 0 132 255 
-24.09428 7.200618 200.7659 0 0 136 255 
-24.09187 28.23975 219.0566 0 0 132 255 
-24.07741 24.68039 215.9544 0 0 140 255 
-24.07651 4.754032 198.6584 0 0 128 255 
-24.07092 19.38643 211.3601 0 0 132 255 
-24.05903 14.22283 206.8833 0 0 136 255 
-24.05436 29.77151 220.4161 0 0 140 255 
-24.04431 8.426345 201.8383 0 0 132 255 
-24.04204 3.102473 197.2165 0 0 128 255 
-24.01987 1.724705 196.0343 0 0 132 255 
-24.01222 4.651297 198.5881 0 0 128 255 
-23.99202 31.91436 222.2285 0 0 144 255 
-23.98982 3.380356 197.4663 0 0 128 255 
-23.98215 4.429272 198.4005 0 0 132 255 
-23.98041 1.846631 196.1484 0 0 132 255 
-23.97892 23.88015 215.282 0 0 132 255 
-23.97599 10.88998 204.0018 0 0 132 255 
-23.9708 12.47744 205.3747 0 0 128 255 
-23.96149 13.54154 206.3117 0 0 132 255 
-23.95642 35.26566 222.8986 0 0 136 255 
-23.949 12.25915 205.2006 0 0 128 255 
-23.94344 4.265871 198.2627 0 0 132 255 
-23.93705 32.17682 222.4294 0 0 144 255 
-23.92689 3.503241 197.5868 0 0 132 255 
-23.92638 0.8072316 195.2395 0 0 140 255 
-23.92443 20.02619 211.9586 0 0 132 255 
-23.92336 25.21902 216.4575 0 0 140 255 
-23.91537 25.76622 216.9344 0 0 140 255 
-23.91159 12.83866 205.692 0 0 132 255 
-23.90723 24.15118 215.5378 0 0 132 255 
-23.90145 36.13295 222.5618 0 0 136 255 
-23.89499 3.347113 197.4585 0 0 132 255 
-23.8861 2.77208 196.9697 0 0 132 255 
-23.88515 1.295996 195.6785 0 0 132 255 
-23.88007 1.932715 196.2462 0 0 132 255 
-23.87856 13.59946 206.3819 0 0 132 255 
-23.87716 34.14493 223.311 0 0 128 255 
-23.87195 7.524667 201.0982 0 0 128 255 
-23.85936 5.897371 199.6886 0 0 132 255 
-23.85313 24.86645 216.1696 0 0 140 255 
-23.84602 6.741545 200.4254 0 0 144 255 
-23.84011 8.265731 201.7464 0 0 128 255 
-23.83685 15.80052 208.299 0 0 132 255 
-23.83262 8.699403 202.1232 0 0 132 255 
-23.81392 31.91949 222.2727 0 0 144 255 
-23.80791 21.9154 213.6246 0 0 132 255 
-23.80558 17.06326 209.4135 0 0 128 255 
-23.80371 35.55207 222.8114 0 0 132 255 
-23.79585 15.29451 207.8697 0 0 132 255 
-23.79298 3.329334 197.4643 0 0 132 255 
-23.78358 32.70076 222.9706 0 0 140 255 
-23.77505 16.18389 208.6481 0 0 128 255 
-23.7677 11.39678 204.4936 0 0 132 255 
-23.76556 26.71172 217.7949 0 0 136 255 
-23.76188 35.27751 222.9241 0 0 132 255 
-23.75859 13.42426 206.2589 0 0 132 255 
-23.75565 12.50734 205.4417 0 0 128 255 
-23.75368 1.703224 196.0768 0 0 132 255 
-23.74948 11.7745 204.8325 0 0 132 255 
-23.74575 1.86722 196.2225 0 0 132 255 
-23.74535 36.13981 222.5776 0 0 132 255 
-23.74337 34.97928 223.04 0 0 136 255 
-23.7414 1.168543 195.5995 0 0 136 255 
-23.73376 36.44304 222.4454 0 0 132 255 
-23.71299 12.09399 205.1247 0 0 132 255 
-23.7091 10.51044 203.734 0 0 132 255 
-23.70139 12.82108 205.724 0 0 132 255 
-23.69532 11.59074 204.683 0 0 132 255 
-23.68083 1.311833 195.7432 0 0 136 255 
-23.67455 3.249947 197.4238 0 0 128 255 
-23.65541 12.50346 205.4577 0 0 128 255 
-23.64988 32.15802 222.4808 0 0 144 255 
-23.64594 14.07343 206.8495 0 0 132 255 
-23.64356 5.235706 199.1707 0 0 132 255 
-23.63213 34.1039 223.3502 0 0 132 255 
-23.6293 33.59525 223.45 0 0 136 255 
-23.62213 3.11 197.3196 0 0 128 255 
-23.62004 35.5523 222.8359 0 0 128 255 
-23.61613 13.27829 206.1632 0 0 132 255 
-23.61337 32.20259 222.5134 0 0 144 255 
-23.60475 27.9891 218.9508 0 0 132 255 
-23.58935 32.95363 223.316 0 0 140 255 
-23.58164 12.63816 205.5883 0 0 128 255 
-23.58012 6.818125 200.5522 0 0 144 255 
-23.57076 1.714592 196.1286 0 0 132 255 
-23.56206 4.98621 198.9833 0 0 132 255 
-23.55018 4.566659 198.6344 0 0 132 255 
-23.54432 36.45889 222.4617 0 0 132 255 
-23.54241 34.98223 223.0608 0 0 136 255 
-23.53579 11.22507 204.3994 0 0 132 255 
-23.52002 3.318258 197.5166 0 0 132 255 
-23.51604 22.55477 214.2467 0 0 132 255 
-23.50883 35.79074 222.7534 0 0 136 255 
-23.50738 8.86454 202.3421 0 0 136 255 
-23.50568 11.51578 204.6625 0 0 132 255 
-23.50201 34.69062 223.1701 0 0 132 255 
-23.49619 1.205831 195.6942 0 0 132 255 
-23.48811 14.39952 207.1652 0 0 132 255 
-23.48483 2.541346 196.8647 0 0 136 255 
-23.48001 33.42225 223.4773 0 0 136 255 
-23.47577 34.40863 223.27 0 0 132 255 
-23.47115 16.2762 208.8027 0 0 128 255 
-23.45065 16.52325 209.024 0 0 132 255 
-23.44246 13.54495 206.4398 0 0 132 255 
-23.43701 11.37549 204.5546 0 0 132 255 
-23.43347 11.8034 204.9376 0 0 132 255 
-23.41304 4.085257 198.2243 0 0 132 255 
-23.41114 5.137237 199.1452 0 0 132 255 
-23.4076 21.731 213.561 0 0 132 255 
-23.40264 20.27902 212.3037 0 0 132 255 
-23.40237 3.48246 197.6844 0 0 132 255 
-23.39566 23.42766 215.0337 0 0 132 255 
-23.39179 9.748014 203.1384 0 0 128 255 
-23.3857 35.2957 222.9594 0 0 132 255 
-23.37786 19.10984 211.2847 0 0 136 255 
-23.37641 13.92631 206.7835 0 0 136 255 
-23.3583 19.95343 212.0312 0 0 132 255 
-23.35312 8.262359 201.8582 0 0 128 255 
-23.35095 29.89001 220.6808 0 0 144 255 
-23.34938 15.23942 207.9286 0 0 132 255 
-23.34376 10.22697 203.569 0 0 132 255 
-23.34094 9.937317 203.315 0 0 128 255 
-23.32672 28.49706 219.4632 0 0 136 255 
-23.32364 36.14888 222.6188 0 0 136 255 
-23.32241 31.62915 222.155 0 0 148 255 
-23.31844 24.55286 216.027 0 0 140 255 
-23.3065 10.57793 203.8858 0 0 132 255 
-23.29597 4.080711 198.2559 0 0 132 255 
-23.29508 14.69508 207.4683 0 0 132 255 
-23.2906 32.35877 222.681 0 0 148 255 
-23.28931 27.70867 218.7787 0 0 132 255 
-23.28723 25.58872 216.93 0 0 140 255 
-23.28374 9.43183 202.8879 0 0 128 255 
-23.27686 25.04775 216.4638 0 0 144 255 
-23.27285 7.152185 200.9132 0 0 136 255 
-23.24869 8.917078 202.4493 0 0 136 255 
-23.2457 33.57879 223.4991 0 0 136 255 
-23.23675 12.67597 205.7016 0 0 132 255 
-23.22758 35.59065 222.8593 0 0 136 255 
-23.22399 32.40806 222.7443 0 0 144 255 
-23.21552 4.783307 198.899 0 0 128 255 
-23.21457 12.54372 205.5857 0 0 132 255 
-23.20895 1.904134 196.3769 0 0 132 255 
-23.20619 2.826063 197.1772 0 0 128 255 
-23.18885 7.930157 201.6098 0 0 128 255 
-23.17869 32.95792 223.4323 0 0 144 255 
-23.17802 2.894208 197.245 0 0 128 255 
-23.17525 1.233239 195.7968 0 0 132 255 
-23.16944 14.64424 207.4544 0 0 132 255 
-23.1672 11.7644 204.9652 0 0 132 255 
-23.16628 32.73473 223.1948 0 0 144 255 
-23.16475 5.164143 199.2242 0 0 132 255 
-23.16114 0.8294464 195.4482 0 0 136 255 
-23.15514 4.526426 198.6905 0 0 132 255 
-23.15007 34.70284 223.199 0 0 136 255 
-23.14094 3.851895 198.0743 0 0 128 255 
-23.13699 23.70737 215.3388 0 0 136 255 
-23.1339 4.38899 198.5711 0 0 132 255 
-23.1274 6.587865 200.4579 0 0 140 255 
-23.12573 3.11608 197.4531 0 0 132 255 
-23.12017 33.87838 223.4602 0 0 136 255 
-23.11422 4.065241 198.2795 0 0 132 255 
-23.11041 36.16114 222.6254 0 0 136 255 
-23.09905 34.37614 223.3005 0 0 136 255 
-23.0911 22.43868 214.25 0 0 132 255 
-23.08558 17.7344 210.1692 0 0 128 255 
-23.07195 35.87242 222.7543 0 0 132 255 
-23.05583 7.523738 201.2885 0 0 128 255 
-23.04957 21.34588 213.3117 0 0 132 255 
-23.04321 15.82193 208.5092 0 0 136 255 
-23.02829 32.41269 222.807 0 0 156 255 
-23.01347 32.70265 223.1984 0 0 148 255 
-23.01013 28.03008 219.1266 0 0 136 255 
-23.00449 3.382648 197.7168 0 0 132 255 
-23.00109 3.573049 197.8743 0 0 128 255 
-22.99812 13.43901 206.4488 0 0 132 255 
-22.99475 32.36282 222.7478 0 0 152 255 
-22.9862 29.9729 220.8358 0 0 148 255 
-22.98549 2.265562 196.7443 0 0 132 255 
-22.97503 0.8095942 195.4779 0 0 140 255 
-22.96991 25.21229 216.6796 0 0 144 255 
-22.96828 13.04222 206.1025 0 0 136 255 
-22.96449 13.90591 206.8649 0 0 132 255 
-22.9641 32.9899 223.4613 0 0 148 255 
-22.95727 7.383602 201.1912 0 0 128 255 
-22.95464 18.54856 210.9002 0 0 132 255 
-22.9501 3.230049 197.6061 0 0 128 255 
-22.9432 28.74683 219.7733 0 0 136 255 
-22.93644 32.09187 222.5873 0 0 160 255 
-22.92595 14.8175 207.6659 0 0 136 255 
-22.91915 2.889175 197.3082 0 0 128 255 
-22.91656 18.02022 210.4557 0 0 128 255 
-22.91274 15.11782 207.9292 0 0 140 255 
-22.90786 11.56407 204.8386 0 0 132 255 
-22.90132 3.92002 198.1989 0 0 128 255 
-22.90091 2.734975 197.174 0 0 132 255 
-22.89613 13.30601 206.3563 0 0 136 255 
-22.88289 3.24792 197.6432 0 0 128 255 
-22.87803 24.59281 216.1647 0 0 144 255 
-22.87727 26.8065 218.0897 0 0 136 255 
-22.86941 11.64336 204.9197 0 0 132 255 
-22.86498 8.060771 201.8012 0 0 132 255 
-22.86354 8.720793 202.3713 0 0 132 255 
-22.85041 5.279651 199.3976 0 0 132 255 
-22.84551 9.035398 202.6466 0 0 132 255 
-22.83536 23.89061 215.5661 0 0 136 255 
-22.8292 17.02081 209.6073 0 0 132 255 
-22.82472 35.47564 222.9395 0 0 136 255 
-22.81791 4.944217 199.1173 0 0 132 255 
-22.81125 2.0291 196.5796 0 0 132 255 
-22.80533 33.41926 223.5685 0 0 136 255 
-22.80092 11.07742 204.4365 0 0 132 255 
-22.79191 32.27161 222.7267 0 0 152 255 
-22.79018 3.454082 197.8363 0 0 128 255 
-22.77721 1.267024 195.9219 0 0 136 255 
-22.77475 34.72869 223.2128 0 0 136 255 
-22.76695 17.73005 210.2412 0 0 128 255 
-22.76653 32.72313 223.3009 0 0 144 255 
-22.75115 29.57247 220.5424 0 0 144 255 
-22.7474 1.45062 196.0883 0 0 132 255 
-22.72844 30.37807 221.2446 0 0 152 255 
-22.72058 14.77287 207.6799 0 0 136 255 
-22.7174 3.341376 197.7672 0 0 132 255 
-22.71356 11.61989 204.9264 0 0 132 255 
-22.70887 6.47541 200.4588 0 0 136 255 
-22.7063 32.35236 222.8121 0 0 148 255 
-22.68654 0.7356694 195.4874 0 0 136 255 
-22.68276 11.70123 205.0068 0 0 128 255 
-22.67785 23.23502 215.0357 0 0 140 255 
-22.66788 6.206465 200.2371 0 0 136 255 
-22.66172 2.392263 196.9371 0 0 136 255 
-22.65803 1.112321 195.8169 0 0 132 255 
-22.65608 3.514216 197.9214 0 0 128 255 
-22.64947 3.865441 198.2151 0 0 128 255 
-22.64205 5.027449 199.2278 0 0 132 255 
-22.63557 32.08302 222.6409 0 0 152 255 
-22.63313 34.28398 223.3395 0 0 136 255 
-22.62868 6.785742 200.7484 0 0 140 255 
-22.6211 24.19281 215.8773 0 0 144 255 
-22.61748 12.50889 205.71 0 0 132 255 
-22.6087 30.18663 221.1069 0 0 148 255 
-22.59661 13.69784 206.772 0 0 132 255 
-22.59054 22.78441 214.6672 0 0 136 255 
-22.58412 18.80415 211.2137 0 0 132 255 
-22.58265 2.570021 197.112 0 0 132 255 
-22.5655 9.292584 202.9338 0 0 132 255 
-22.56376 4.835337 199.0784 0 0 132 255 
-22.56051 11.93865 205.2346 0 0 128 255 
-22.55495 11.74997 205.0755 0 0 132 255 
-22.54766 12.12309 205.3918 0 0 128 255 
-22.53357 26.64978 218.0343 0 0 136 255 
-22.53059 19.16653 211.5434 0 0 132 255 
-22.52302 13.05369 206.218 0 0 132 255 
-22.5203 10.56708 204.0541 0 0 136 255 
-22.51244 15.01677 207.9413 0 0 136 255 
-22.50683 1.318592 196.0313 0 0 132 255 
-22.49913 1.777048 196.4342 0 0 132 255 
-22.49171 33.57993 223.5913 0 0 136 255 
-22.47693 1.466932 196.1839 0 0 132 255 
-22.47387 7.609118 201.5061 0 0 128 255 
-22.47331 21.92907 213.9556 0 0 136 255 
-22.47067 31.38804 222.1519 0 0 144 255 
-22.47015 3.499089 197.9556 0 0 132 255 
-22.46653 8.281897 202.0876 0 0 128 255 
-22.45677 28.43527 219.6153 0 0 136 255 
-22.44805 35.03114 223.1492 0 0 136 255 
-22.44527 1.326914 196.1707 0 0 128 255 
-22.43266 32.20987 222.7562 0 0 148 255 
-22.4308 3.931173 198.3254 0 0 132 255 
-22.42541 8.898888 202.6274 0 0 136 255 
-22.42305 4.546742 198.8561 0 0 128 255 
-22.41861 16.98246 209.6707 0 0 132 255 
-22.40839 2.498379 197.0932 0 0 132 255 
-22.40509 36.29905 222.6196 0 0 136 255 
-22.40331 12.01105 205.333 0 0 132 255 
-22.39634 6.312176 200.3944 0 0 140 255 
-22.39099 3.653271 198.1031 0 0 132 255 
-22.38416 5.61011 199.7983 0 0 136 255 
-22.37699 1.73216 196.4258 0 0 132 255 
-22.37546 1.643566 196.3477 0 0 132 255 
-22.37183 7.877589 201.7623 0 0 128 255 
-22.36384 8.494123 202.2942 0 0 136 255 
-22.35493 5.81988 199.9831 0 0 136 255 
-22.35282 34.73071 223.2303 0 0 140 255 
-22.34848 19.30961 211.7121 0 0 132 255 
-22.34055 34.44762 223.271 0 0 140 255 
-22.33897 14.25518 207.3327 0 0 132 255 
-22.33509 4.860791 199.1523 0 0 136 255 
-22.3317 32.04015 222.6771 0 0 148 255 
-22.32851 5.216707 199.4706 0 0 132 255 
-22.32314 2.475722 197.0936 0 0 128 255 
-22.31789 25.2033 216.8274 0 0 148 255 
-22.30432 21.30185 213.4506 0 0 136 255 
-22.30289 1.820502 196.522 0 0 132 255 
-22.30228 23.64679 215.4746 0 0 140 255 
-22.29927 22.47304 214.4674 0 0 136 255 
-22.28929 13.27691 206.4732 0 0 132 255 
-22.28514 17.03546 209.7476 0 0 132 255 
-22.28134 32.18223 222.7737 0 0 144 255 
-22.28097 17.34768 210.0225 0 0 128 255 
-22.28039 30.46075 221.4175 0 0 148 255 
-22.27856 10.80252 204.3169 0 0 136 255 
-22.2735 18.17719 210.7481 0 0 132 255 
-22.27079 0.8152803 195.6574 0 0 136 255 
-22.26833 4.707703 199.0303 0 0 132 255 
-22.2675 14.64889 207.6874 0 0 132 255 
-22.26145 33.74325 223.5827 0 0 132 255 
-22.25857 28.8008 219.9834 0 0 136 255 
-22.24642 6.769016 200.8282 0 0 136 255 
-22.2256 4.137351 198.547 0 0 136 255 
-22.22244 6.196212 200.3385 0 0 140 255 
-22.21961 31.75179 222.4991 0 0 144 255 
-22.21708 33.00965 223.6021 0 0 136 255 
-22.21005 0.9962162 195.8261 0 0 132 255 
-22.2067 4.906706 199.2204 0 0 136 255 
-22.19713 3.88291 198.3402 0 0 132 255 
-22.19019 2.173723 196.8649 0 0 132 255 
-22.18056 10.48643 204.0628 0 0 136 255 
-22.17038 28.41754 219.6686 0 0 136 255 
-22.15939 18.85807 211.3664 0 0 136 255 
-22.14812 30.2327 221.253 0 0 148 255 
-22.12933 33.13776 223.651 0 0 132 255 
-22.11787 2.492075 197.1541 0 0 132 255 
-22.11362 30.58243 221.559 0 0 148 255 
-22.1086 12.02546 205.4159 0 0 132 255 
-22.09776 34.11271 223.4332 0 0 132 255 
-22.09078 19.35063 211.8086 0 0 132 255 
-22.08617 29.11858 220.3026 0 0 140 255 
-22.07733 9.260698 203.0205 0 0 132 255 
-22.07663 9.925578 203.5971 0 0 132 255 
-22.06118 14.66101 207.7462 0 0 132 255 
-22.05863 5.864482 200.0981 0 0 144 255 
-22.0475 24.07493 215.9042 0 0 144 255 
-22.02497 26.76706 218.2571 0 0 136 255 
-22.02195 32.73196 223.5059 0 0 144 255 
-22.02179 33.00951 223.6351 0 0 140 255 
-22.019 14.39635 207.5315 0 0 132 255 
-22.01557 4.002765 198.4845 0 0 136 255 
-22.01381 33.431 223.6703 0 0 128 255 
-22.01066 3.437204 198.0143 0 0 132 255 
-22.00523 6.513317 200.6647 0 0 140 255 
-21.99972 4.617979 199.0121 0 0 136 255 
-21.99599 32.4856 223.2006 0 0 144 255 
-21.99419 17.98115 210.6464 0 0 132 255 
-21.98539 34.8701 223.2993 0 0 132 255 
-21.98233 35.45345 223.0231 0 0 132 255 
-21.97523 23.7775 215.6605 0 0 136 255 
-21.97006 15.27289 208.2875 0 0 136 255 
-21.95534 31.29084 222.1905 0 0 148 255 
-21.95224 34.39933 223.3396 0 0 136 255 
-21.94921 16.4837 209.3465 0 0 132 255 
-21.94553 25.64768 217.3031 0 0 144 255 
-21.94057 3.45811 198.0485 0 0 132 255 
-21.93685 13.90409 207.1201 0 0 132 255 
-21.93296 32.24562 222.8905 0 0 148 255 
-21.91697 32.02441 222.7554 0 0 148 255 
-21.8999 2.481933 197.1934 0 0 136 255 
-21.89032 5.270138 199.6319 0 0 136 255 
-21.88701 0.6915684 195.633 0 0 136 255 
-21.88094 13.27827 206.5723 0 0 132 255 
-21.87922 33.7284 223.6264 0 0 136 255 
-21.87756 7.692232 201.7206 0 0 128 255 
-21.87146 5.068905 199.4562 0 0 136 255 
-21.86636 2.086654 196.866 0 0 136 255 
-21.86333 25.10664 216.8528 0 0 144 255 
-21.86251 3.647393 198.2266 0 0 132 255 
-21.8578 14.05436 207.2722 0 0 132 255 
-21.84698 31.89891 222.6883 0 0 156 255 
-21.83808 34.24265 223.445 0 0 136 255 
-21.82719 15.9296 208.8929 0 0 136 255 
-21.82291 32.74913 223.5508 0 0 152 255 
-21.81015 32.32001 223.0217 0 0 152 255 
-21.80818 30.36859 221.4475 0 0 156 255 
-21.80696 1.77998 196.6165 0 0 136 255 
-21.80064 28.73611 220.0368 0 0 136 255 
-21.79892 23.64087 215.5844 0 0 136 255 
-21.79601 4.120903 198.6395 0 0 136 255 
-21.79327 2.468786 197.2092 0 0 136 255 
-21.78598 15.56111 208.5792 0 0 140 255 
-21.78375 32.23302 222.9164 0 0 156 255 
-21.77709 21.82352 214.03 0 0 132 255 
-21.77393 14.26099 207.4718 0 0 128 255 
-21.77271 30.87888 221.8866 0 0 152 255 
-21.77071 22.40925 214.5381 0 0 132 255 
-21.76559 2.622918 197.3409 0 0 136 255 
-21.76539 34.10961 223.5118 0 0 140 255 
-21.7484 1.920866 196.7525 0 0 136 255 
-21.7469 21.01809 213.3357 0 0 136 255 
-21.74396 34.56126 223.3985 0 0 136 255 
-21.73634 9.470691 203.2825 0 0 132 255 
-21.72697 10.14297 203.8734 0 0 132 255 
-21.71406 23.79037 215.7346 0 0 132 255 
-21.69454 31.63392 222.5269 0 0 156 255 
-21.68742 17.90362 210.6516 0 0 136 255 
-21.68419 24.05552 215.9766 0 0 136 255 
-21.67793 28.36347 219.7417 0 0 136 255 
-21.677 14.03158 207.2915 0 0 132 255 
-21.66765 1.771019 196.6442 0 0 132 255 
-21.66196 3.341274 198.0141 0 0 132 255 
-21.66035 4.797266 199.261 0 0 136 255 
-21.65293 32.20136 222.9212 0 0 152 255 
-21.63763 32.48235 223.3036 0 0 152 255 
-21.6358 3.334707 198.0128 0 0 132 255 
-21.63472 18.19144 210.9168 0 0 136 255 
-21.63084 5.304981 199.7333 0 0 132 255 
-21.62724 3.533297 198.1897 0 0 132 255 
-21.62592 6.083035 200.3878 0 0 136 255 
-21.62054 7.058019 201.2316 0 0 132 255 
-21.61398 12.93438 206.3338 0 0 132 255 
-21.61018 2.980856 197.5308 0 0 128 255 
-21.60566 34.39436 223.4511 0 0 144 255 
-21.60355 33.04111 223.7143 0 0 152 255 
-21.59892 32.75935 223.5991 0 0 156 255 
-21.59334 15.73118 208.7721 0 0 140 255 
-21.58964 24.48635 216.381 0 0 140 255 
-21.58669 17.05299 209.9264 0 0 136 255 
-21.58186 3.068466 197.7179 0 0 128 255 
-21.57536 11.21675 204.8497 0 0 132 255 
-21.5669 7.710321 201.8086 0 0 128 255 
-21.55781 16.31442 209.2911 0 0 136 255 
-21.55301 5.107165 199.5768 0 0 132 255 
-21.55191 2.273543 197.1073 0 0 136 255 
-21.53618 30.38829 221.5281 0 0 152 255 
-21.53508 3.133341 197.8554 0 0 136 255 
-21.52877 23.93682 215.9105 0 0 136 255 
-21.52576 19.45286 212.0293 0 0 132 255 
-21.51906 10.72927 204.4433 0 0 136 255 
-21.50865 13.10732 206.5112 0 0 132 255 
-21.50761 27.49154 219.0132 0 0 136 255 
-21.50655 15.3367 208.4458 0 0 136 255 
-21.48982 2.112825 196.9861 0 0 132 255 
-21.48117 3.018508 197.7624 0 0 132 255 
-21.47161 13.34044 206.7233 0 0 132 255 
-21.46367 17.71637 210.5389 0 0 132 255 
-21.46138 3.913507 198.5508 0 0 140 255 
-21.4593 35.33343 223.1232 0 0 140 255 
-21.45721 26.78309 218.4056 0 0 132 255 
-21.44867 6.352882 200.6602 0 0 136 255 
-21.44634 15.1126 208.2666 0 0 140 255 
-21.44545 27.83387 219.33 0 0 136 255 
-21.44185 7.56223 201.7088 0 0 132 255 
-21.43271 23.73188 215.7573 0 0 132 255 
-21.42793 11.45754 205.0922 0 0 132 255 
-21.42214 8.36685 202.4048 0 0 132 255 
-21.41418 1.882004 196.8063 0 0 132 255 
-21.40935 13.72614 207.0776 0 0 132 255 
-21.40753 32.20289 222.9749 0 0 152 255 
-21.39944 10.4273 204.2068 0 0 132 255 
-21.3922 32.76075 223.6398 0 0 152 255 
-21.38471 31.09921 222.1627 0 0 156 255 
-21.38005 4.905372 199.4371 0 0 136 255 
-21.37722 33.11008 223.7616 0 0 152 255 
-21.37562 2.449163 197.301 0 0 132 255 
-21.36803 21.28395 213.6575 0 0 132 255 
-21.36566 28.59855 220.0226 0 0 140 255 
-21.36004 13.63185 207.0047 0 0 132 255 
-21.35611 8.57139 202.5952 0 0 136 255 
-21.34665 1.838272 196.7864 0 0 132 255 
-21.3284 25.05768 216.9395 0 0 140 255 
-21.31514 30.88403 221.9978 0 0 156 255 
-21.30132 20.60772 213.0851 0 0 128 255 
-21.28831 12.52514 206.0565 0 0 132 255 
-21.28626 9.760706 203.644 0 0 132 255 
-21.27864 27.91715 219.4447 0 0 136 255 
-21.2764 33.4348 223.7587 0 0 152 255 
-21.27422 19.08082 211.7689 0 0 136 255 
-21.26968 24.62181 216.5781 0 0 144 255 
-21.26423 35.6039 223.0195 0 0 136 255 
-21.25508 0.7409124 195.803 0 0 132 255 
-21.24609 20.09084 212.6486 0 0 132 255 
-21.23577 32.53167 223.4921 0 0 156 255 
-21.23555 36.09438 222.8063 0 0 140 255 
-21.23192 14.3915 207.6996 0 0 132 255 
-21.22833 28.91279 220.3285 0 0 140 255 
-21.22473 4.140204 198.8008 0 0 136 255 
-21.21983 29.23908 220.6136 0 0 144 255 
-21.21453 1.058275 196.0626 0 0 132 255 
-21.21144 7.724 201.9015 0 0 132 255 
-21.20964 3.283787 198.067 0 0 136 255 
-21.20411 3.178115 197.9706 0 0 136 255 
-21.18706 15.56417 208.718 0 0 144 255 
-21.17698 4.984343 199.5651 0 0 132 255 
-21.17344 5.428246 199.951 0 0 132 255 
-21.1692 10.14154 204.0125 0 0 132 255 
-21.16808 16.25847 209.3327 0 0 132 255 
-21.16311 28.14513 219.6731 0 0 140 255 
-21.15683 7.027541 201.3149 0 0 128 255 
-21.15064 17.37184 210.308 0 0 128 255 
-21.14506 5.950308 200.3887 0 0 136 255 
-21.1365 2.963495 197.7946 0 0 140 255 
-21.1313 19.24501 211.9437 0 0 132 255 
-21.12932 18.29839 211.1295 0 0 132 255 
-21.12771 17.74421 210.6396 0 0 132 255 
-21.11992 3.726109 198.48 0 0 136 255 
-21.10966 32.29442 223.1975 0 0 160 255 
-21.10374 33.90992 223.6584 0 0 144 255 
-21.09915 4.309191 198.9769 0 0 136 255 
-21.09562 12.14492 205.7706 0 0 132 255 
-21.09281 31.64908 222.6681 0 0 160 255 
-21.09131 15.68244 208.8445 0 0 140 255 
-21.08628 1.831221 196.8491 0 0 136 255 
-21.07937 31.84481 222.8098 0 0 164 255 
-21.07725 32.03859 222.9277 0 0 160 255 
-21.07152 1.021485 196.076 0 0 136 255 
-21.06782 13.03836 206.5548 0 0 132 255 
-21.06513 7.379124 201.64 0 0 132 255 
-21.06234 2.988871 197.8365 0 0 140 255 
-21.05734 35.69744 222.9976 0 0 144 255 
-21.05195 6.757436 201.1066 0 0 132 255 
-21.04765 2.338076 197.2896 0 0 132 255 
-21.03377 32.18224 223.0542 0 0 152 255 
-21.03077 18.55939 211.3806 0 0 132 255 
-21.02437 12.56188 206.1527 0 0 132 255 
-21.01662 0.8720881 195.9744 0 0 136 255 
-21.00805 8.011445 202.1958 0 0 128 255 
-21.00564 17.02162 210.0371 0 0 132 255 
-21.00354 26.18515 217.994 0 0 136 255 
-20.99365 18.71156 211.5202 0 0 136 255 
-20.98736 27.71127 219.331 0 0 136 255 
-20.98189 26.98717 218.6949 0 0 136 255 
-20.97429 10.56724 204.4387 0 0 132 255 
-20.97131 15.14295 208.4037 0 0 140 255 
-20.97071 12.73464 206.3155 0 0 132 255 
-20.96264 6.168483 200.6197 0 0 132 255 
-20.9569 34.83524 223.3856 0 0 148 255 
-20.95442 24.80461 216.8119 0 0 140 255 
-20.9495 2.630353 197.5587 0 0 136 255 
-20.93957 1.56713 196.6461 0 0 136 255 
-20.93753 28.04645 219.6393 0 0 140 255 
-20.93659 4.5557 199.2388 0 0 136 255 
-20.93154 13.70436 207.1634 0 0 132 255 
-20.92566 7.320291 201.621 0 0 128 255 
-20.92004 1.984393 197.023 0 0 136 255 
-20.91685 3.500038 198.3315 0 0 140 255 
-20.90733 2.187166 197.1987 0 0 132 255 
-20.90461 11.71763 205.4424 0 0 128 255 
-20.90138 11.24082 205.0331 0 0 132 255 
-20.89599 9.862188 203.8306 0 0 132 255 
-20.89424 3.941832 198.7225 0 0 140 255 
-20.88615 4.80603 199.4751 0 0 136 255 
-20.87929 34.38052 223.5194 0 0 148 255 
-20.87843 1.07121 196.1757 0 0 136 255 
-20.86862 10.99873 204.835 0 0 132 255 
-20.86477 21.50519 213.9709 0 0 132 255 
-20.86406 10.69371 204.5746 0 0 132 255 
-20.85412 25.58507 217.5083 0 0 136 255 
-20.84658 18.31072 211.2052 0 0 136 255 
-20.83011 14.40529 207.8047 0 0 136 255 
-20.82612 32.14524 223.0714 0 0 156 255 
-20.82117 13.12586 206.6867 0 0 132 255 
-20.81472 32.77476 223.7642 0 0 152 255 
-20.81274 32.89714 223.8071 0 0 148 255 
-20.8084 20.9391 213.4913 0 0 136 255 
-20.80176 31.99201 222.9629 0 0 160 255 
-20.79587 4.969308 199.6428 0 0 136 255 
-20.79482 7.785909 202.0505 0 0 128 255 
-20.79391 1.726523 196.8239 0 0 136 255 
-20.77792 2.321675 197.341 0 0 132 255 
-20.77241 5.110417 199.7702 0 0 132 255 
-20.76402 24.31001 216.4296 0 0 144 255 
-20.75479 24.48099 216.5788 0 0 144 255 
-20.74823 7.984654 202.2343 0 0 128 255 
-20.74763 2.159797 197.2117 0 0 132 255 
-20.74032 1.580243 196.6984 0 0 136 255 
-20.73852 5.652145 200.2307 0 0 136 255 
-20.7359 19.25206 212.0458 0 0 136 255 
-20.72321 33.63811 223.7789 0 0 148 255 
-20.7167 5.960191 200.4984 0 0 132 255 
-20.70936 13.98116 207.4589 0 0 132 255 
-20.69888 35.49098 223.1277 0 0 144 255 
-20.6947 14.9442 208.3014 0 0 140 255 
-20.68891 0.8788532 196.0797 0 0 136 255 
-20.68732 34.15192 223.6036 0 0 148 255 
-20.68554 8.520945 202.7126 0 0 136 255 
-20.68477 18.02952 210.9906 0 0 140 255 
-20.68292 30.11371 221.4935 0 0 164 255 
-20.68105 3.361291 198.2646 0 0 136 255 
-20.67844 34.65821 223.4581 0 0 140 255 
-20.67289 22.94032 215.2598 0 0 136 255 
-20.66579 6.35078 200.8504 0 0 132 255 
-20.66277 1.832923 196.9491 0 0 136 255 
-20.65789 31.47565 222.63 0 0 168 255 
-20.64506 30.88427 222.152 0 0 168 255 
-20.64179 32.50875 223.6133 0 0 156 255 
-20.64059 16.78519 209.9175 0 0 136 255 
-20.63824 33.55534 223.8063 0 0 140 255 
-20.63411 32.78678 223.7984 0 0 152 255 
-20.6293 34.88292 223.3958 0 0 140 255 
-20.62619 19.67161 212.4336 0 0 132 255 
-20.62425 9.931448 203.96 0 0 132 255 
-20.61994 7.397976 201.7599 0 0 128 255 
-20.61323 34.5799 223.4607 0 0 144 255 
-20.60273 5.426404 200.0712 0 0 132 255 
-20.59552 24.15191 216.3305 0 0 144 255 
-20.5941 6.137156 200.6829 0 0 132 255 
-20.5911 26.71093 218.5454 0 0 136 255 
-20.58511 14.67657 208.0991 0 0 140 255 
-20.58014 32.15779 223.1675 0 0 152 255 
-20.57646 15.67539 208.9581 0 0 140 255 
-20.56806 18.61242 211.5375 0 0 140 255 
-20.5633 33.99239 223.683 0 0 140 255 
-20.55545 4.748832 199.5017 0 0 136 255 
-20.55433 9.372455 203.4809 0 0 128 255 
-20.54774 2.271317 197.3498 0 0 132 255 
-20.53976 12.71121 206.3958 0 0 132 255 
-20.53544 2.771861 197.7743 0 0 136 255 
-20.53305 5.730828 200.3456 0 0 136 255 
-20.52558 32.57495 223.7017 0 0 148 255 
-20.50869 36.63737 222.6413 0 0 148 255 
-20.50271 2.98562 197.9702 0 0 140 255 
-20.50091 26.97832 218.7991 0 0 140 255 
-20.49336 4.22147 199.0606 0 0 136 255 
-20.489 22.50155 214.9237 0 0 132 255 
-20.48661 15.97671 209.2453 0 0 140 255 
-20.48229 17.87314 210.8972 0 0 140 255 
-20.47382 23.52194 215.8092 0 0 132 255 
-20.46641 2.121968 197.2413 0 0 132 255 
-20.46096 9.742539 203.8294 0 0 132 255 
-20.45654 4.38355 199.2065 0 0 140 255 
-20.44518 16.48322 209.7 0 0 136 255 
-20.44192 34.37899 223.5102 0 0 140 255 
-20.42908 15.20207 208.5858 0 0 140 255 
-20.42556 34.781 223.4484 0 0 136 255 
-20.42012 3.502557 198.4582 0 0 140 255 
-20.40615 15.46026 208.8119 0 0 140 255 
-20.39835 32.38631 223.5194 0 0 144 255 
-20.39424 1.844147 197.0168 0 0 132 255 
-20.39311 13.88725 207.4516 0 0 132 255 
-20.38532 3.354914 198.3324 0 0 140 255 
-20.38121 8.237893 202.5431 0 0 136 255 
-20.37955 6.328993 200.9063 0 0 132 255 
-20.37643 27.35674 219.1594 0 0 136 255 
-20.36591 19.08051 211.9913 0 0 136 255 
-20.36244 13.29859 206.9422 0 0 132 255 
-20.34716 35.30767 223.2493 0 0 136 255 
-20.34541 34.42369 223.4955 0 0 128 255 
-20.33922 1.10359 196.381 0 0 136 255 
-20.33792 6.781182 201.3061 0 0 132 255 
-20.32405 18.9105 211.8573 0 0 136 255 
-20.32047 25.15322 217.2587 0 0 140 255 
-20.31875 16.89164 210.0835 0 0 132 255 
-20.30924 34.18077 223.6073 0 0 136 255 
-20.29813 23.94932 216.218 0 0 144 255 
-20.29348 4.220483 199.1093 0 0 140 255 
-20.28879 31.44329 222.6866 0 0 160 255 
-20.28599 28.95758 220.5869 0 0 144 255 
-20.27664 27.60333 219.3997 0 0 136 255 
-20.26801 2.825624 197.887 0 0 136 255 
-20.26563 32.14406 223.2373 0 0 148 255 
-20.26541 35.61229 223.1127 0 0 136 255 
-20.26309 18.05639 211.1104 0 0 136 255 
-20.25618 24.11109 216.3694 0 0 144 255 
-20.2521 10.66711 204.6901 0 0 128 255 
-20.24785 34.63305 223.4524 0 0 132 255 
-20.24052 35.06245 223.3804 0 0 132 255 
-20.23462 19.79399 212.6347 0 0 136 255 
-20.22979 17.68247 210.7865 0 0 136 255 
-20.22443 32.32191 223.4808 0 0 144 255 
-20.21489 21.39369 214.0278 0 0 132 255 
-20.20248 31.80187 222.9598 0 0 152 255 
-20.19619 11.46889 205.3872 0 0 128 255 
-20.18766 33.96537 223.7213 0 0 128 255 
-20.18521 8.570657 202.8771 0 0 136 255 
-20.17786 18.08094 211.1544 0 0 132 255 
-20.1699 9.655781 203.8217 0 0 128 255 
-20.1656 16.44343 209.7305 0 0 136 255 
-20.15787 31.49096 222.7518 0 0 156 255 
-20.15462 22.44168 214.9486 0 0 132 255 
-20.14744 19.22437 212.1673 0 0 132 255 
-20.14621 1.218742 196.5535 0 0 136 255 
-20.1392 26.38798 218.37 0 0 132 255 
-20.12779 3.457425 198.4917 0 0 132 255 
-20.12339 23.98323 216.2867 0 0 148 255 
-20.1218 7.159106 201.6797 0 0 128 255 
-20.11954 5.06659 199.8729 0 0 132 255 
-20.10657 14.31502 207.9035 0 0 140 255 
-20.10356 3.909739 198.8926 0 0 136 255 
-20.10053 0.8940355 196.2677 0 0 136 255 
-20.0957 2.705803 197.8245 0 0 132 255 
-20.09248 18.6835 211.7146 0 0 136 255 
-20.08769 35.10534 223.3731 0 0 128 255 
-20.08318 33.79148 223.8052 0 0 128 255 
-20.07154 16.10355 209.4562 0 0 140 255 
-20.05833 29.91887 221.4722 0 0 144 255 
-20.05082 5.99694 200.6994 0 0 132 255 
-20.04846 11.66984 205.5976 0 0 128 255 
-20.04205 5.721366 200.4575 0 0 132 255 
-20.03691 12.23538 206.0974 0 0 132 255 
-20.03091 16.25076 209.5946 0 0 140 255 
-20.02481 30.36331 221.8574 0 0 152 255 
-20.02092 2.944132 198.0557 0 0 136 255 
-20.00649 5.266508 200.0688 0 0 132 255 
-19.99545 10.99415 205.0257 0 0 132 255 
-19.98869 17.84828 210.9887 0 0 140 255 
-19.97825 14.91677 208.4555 0 0 144 255 
-19.96969 9.943537 204.1242 0 0 132 255 
-19.96143 26.69214 218.6742 0 0 132 255 
-19.96005 4.866513 199.737 0 0 132 255 
-19.95653 2.087687 197.3239 0 0 132 255 
-19.95345 6.317802 201.0087 0 0 132 255 
-19.94251 7.920888 202.3743 0 0 128 255 
-19.92749 19.27923 212.2664 0 0 132 255 
-19.92411 8.924778 203.244 0 0 132 255 
-19.92102 17.19364 210.4319 0 0 136 255 
-19.91937 13.52025 207.2395 0 0 132 255 
-19.90744 32.44988 223.7172 0 0 132 255 
-19.89418 5.513688 200.3118 0 0 132 255 
-19.88921 0.7884663 196.2271 0 0 136 255 
-19.88608 23.91815 216.2838 0 0 144 255 
-19.88011 14.61871 208.2278 0 0 144 255 
-19.87724 22.97635 215.4718 0 0 136 255 
-19.86686 12.47401 206.3441 0 0 132 255 
-19.86365 31.77649 223.0146 0 0 136 255 
-19.85305 16.86396 210.1641 0 0 140 255 
-19.85156 22.5242 215.0896 0 0 132 255 
-19.8482 24.39466 216.7079 0 0 144 255 
-19.84305 34.62823 223.4248 0 0 140 255 
-19.83681 15.09594 208.644 0 0 148 255 
-19.82605 30.7675 222.2416 0 0 140 255 
-19.82042 1.827136 197.1311 0 0 132 255 
-19.8142 11.38598 205.4037 0 0 132 255 
-19.81187 8.367495 202.7917 0 0 140 255 
-19.80752 4.690053 199.6213 0 0 132 255 
-19.80373 14.09971 207.7879 0 0 136 255 
-19.79794 26.05234 218.1594 0 0 136 255 
-19.78617 5.867575 200.6545 0 0 132 255 
-19.78204 33.93615 223.7681 0 0 144 255 
-19.7785 28.30639 220.1326 0 0 136 255 
-19.77722 31.0485 222.4903 0 0 132 255 
-19.77497 35.10751 223.4197 0 0 152 255 
-19.77008 27.26959 219.222 0 0 132 255 
-19.76026 16.45135 209.8301 0 0 140 255 
-19.75245 5.199352 200.0731 0 0 132 255 
-19.74473 5.612051 200.4371 0 0 132 255 
-19.74119 13.74264 207.4813 0 0 132 255 
-19.73293 10.29232 204.485 0 0 132 255 
-19.72758 34.94156 223.4263 0 0 152 255 
-19.71607 18.72571 211.8397 0 0 136 255 
-19.70864 15.77913 209.2644 0 0 144 255 
-19.7053 1.213114 196.6524 0 0 132 255 
-19.70328 16.17741 209.609 0 0 140 255 
-19.70049 31.95431 223.1651 0 0 128 255 
-19.69347 33.79803 223.8366 0 0 152 255 
-19.6855 1.510335 196.9001 0 0 132 255 
-19.68469 1.662283 197.0274 0 0 132 255 
-19.68117 15.17089 208.7459 0 0 144 255 
-19.67557 6.510211 201.244 0 0 132 255 
-19.66615 1.818835 197.1633 0 0 132 255 
-19.66129 19.2079 212.2688 0 0 132 255 
-19.65536 20.26002 213.1776 0 0 128 255 
-19.64103 29.12924 220.8849 0 0 132 255 
-19.632 3.744332 198.8632 0 0 136 255 
-19.61887 3.530142 198.6812 0 0 136 255 
-19.59628 22.2739 214.9322 0 0 136 255 
-19.59232 34.22401 223.6532 0 0 152 255 
-19.58965 32.22188 223.5267 0 0 140 255 
-19.58669 30.78826 222.3151 0 0 128 255 
-19.58333 2.042859 197.375 0 0 132 255 
-19.57326 1.049269 196.5369 0 0 136 255 
-19.56951 9.15432 203.5282 0 0 128 255 
-19.56714 21.01114 213.8491 0 0 136 255 
-19.56541 22.67629 215.2861 0 0 136 255 
-19.55514 31.11391 222.5935 0 0 132 255 
-19.55346 24.70106 217.0441 0 0 144 255 
-19.55091 13.41439 207.2339 0 0 132 255 
-19.5503 2.406217 197.6983 0 0 132 255 
-19.53269 10.64432 204.831 0 0 128 255 
-19.5291 15.37473 208.9603 0 0 148 255 
-19.50928 16.7235 210.1198 0 0 140 255 
-19.50326 1.66589 197.0733 0 0 132 255 
-19.49645 31.76282 223.0725 0 0 128 255 
-19.49476 1.403037 196.851 0 0 132 255 
-19.48657 23.93655 216.3941 0 0 144 255 
-19.48435 13.82612 207.6191 0 0 132 255 
-19.47412 5.994133 200.8453 0 0 132 255 
-19.46768 27.11649 219.158 0 0 136 255 
-19.46223 10.35802 204.6029 0 0 128 255 
-19.45263 34.64025 223.4719 0 0 152 255 
-19.44647 3.254094 198.4767 0 0 136 255 
-19.44263 1.879887 197.2706 0 0 132 255 
-19.43808 17.67382 210.9642 0 0 140 255 
-19.42859 0.9775521 196.5003 0 0 136 255 
-19.41798 8.208329 202.7499 0 0 140 255 
-19.41536 7.28557 201.9595 0 0 128 255 
-19.40354 14.93047 208.6102 0 0 144 255 
-19.39936 14.06138 207.8539 0 0 132 255 
-19.39549 11.49229 205.5974 0 0 128 255 
-19.3929 11.99928 206.0414 0 0 132 255 
-19.38247 34.49168 223.5496 0 0 128 255 
-19.3799 10.87025 205.0605 0 0 128 255 
-19.37523 35.71032 223.1501 0 0 128 255 
-19.35928 0.6991104 196.2549 0 0 136 255 
-19.35471 36.26913 222.9063 0 0 144 255 
-19.34535 3.69568 198.8862 0 0 136 255 
-19.33048 13.63613 207.4838 0 0 132 255 
-19.32866 21.72594 214.5226 0 0 136 255 
-19.32145 19.16038 212.3058 0 0 128 255 
-19.31682 19.51906 212.6171 0 0 128 255 
-19.31092 31.39633 222.8737 0 0 128 255 
-19.29451 24.28314 216.7419 0 0 148 255 
-19.28899 4.379436 199.4784 0 0 136 255 
-19.28201 5.945613 200.8454 0 0 132 255 
-19.27846 34.31291 223.6498 0 0 156 255 
-19.27668 32.40084 223.8179 0 0 140 255 
-19.27192 34.89891 223.405 0 0 164 255 
-19.26896 35.32475 223.3718 0 0 152 255 
-19.26311 12.66217 206.6449 0 0 128 255 
-19.25925 17.9563 211.258 0 0 136 255 
-19.25805 31.85749 223.189 0 0 128 255 
-19.25134 26.22151 218.4329 0 0 140 255 
-19.24393 10.44934 204.7317 0 0 132 255 
-19.2413 15.34737 209.0109 0 0 140 255 
-19.23978 13.60258 207.4729 0 0 132 255 
-19.23394 0.7970847 196.3712 0 0 136 255 
-19.22989 30.46464 222.1266 0 0 132 255 
-19.22584 9.481289 203.8947 0 0 128 255 
-19.22267 36.03068 223.0209 0 0 148 255 
-19.21535 14.62045 208.3946 0 0 140 255 
-19.20839 18.14654 211.4398 0 0 136 255 
-19.18169 8.003654 202.6292 0 0 132 255 
-19.1753 7.647337 202.3245 0 0 128 255 
-19.17431 2.570526 197.9401 0 0 136 255 
-19.1612 13.23855 207.1672 0 0 132 255 
-19.15991 6.052346 200.9695 0 0 132 255 
-19.15429 32.25346 223.683 0 0 132 255 
-19.14964 28.23103 220.2082 0 0 140 255 
-19.14375 8.886062 203.4002 0 0 128 255 
-19.13248 8.601355 203.1584 0 0 136 255 
-19.12591 1.016153 196.5972 0 0 136 255 
-19.12132 28.89641 220.8007 0 0 132 255 
-19.11109 31.57093 223.0444 0 0 132 255 
-19.10857 29.74916 221.5467 0 0 132 255 
-19.10115 35.7537 223.1519 0 0 152 255 
-19.0954 19.4704 212.6259 0 0 128 255 
-19.08969 21.21088 214.1342 0 0 132 255 
-19.08283 15.55829 209.2326 0 0 144 255 
-19.07615 3.299265 198.6022 0 0 136 255 
-19.07413 27.60416 219.674 0 0 140 255 
-19.06472 4.92372 199.9987 0 0 128 255 
-19.05515 15.86839 209.5037 0 0 140 255 
-19.05244 23.47649 216.0986 0 0 140 255 
-19.05064 1.65012 197.1684 0 0 132 255 
-19.03973 13.80197 207.7036 0 0 132 255 
-19.02697 35.04794 223.4024 0 0 164 255 
-19.02395 19.01914 212.2502 0 0 132 255 
-19.02115 5.759971 200.7421 0 0 128 255 
-19.02017 7.243785 202.0174 0 0 128 255 
-19.01771 16.44852 209.9985 0 0 140 255 
-19.00341 19.81932 212.9494 0 0 132 255 
-18.9917 6.379808 201.2908 0 0 128 255 
-18.97709 31.27457 222.8552 0 0 132 255 
-18.97244 2.950765 198.3213 0 0 136 255 
-18.95716 34.40229 223.6473 0 0 156 255 
-18.9549 15.34992 209.0836 0 0 140 255 
-18.94428 7.663092 202.3941 0 0 128 255 
-18.9401 31.9765 223.3931 0 0 128 255 
-18.9229 26.46193 218.7166 0 0 136 255 
-18.91943 30.10263 221.8933 0 0 132 255 
-18.91083 14.32666 208.2104 0 0 136 255 
-18.90198 5.852427 200.8506 0 0 128 255 
-18.89357 20.93014 213.9375 0 0 132 255 
-18.89066 16.34516 209.943 0 0 140 255 
-18.88522 14.17631 208.0806 0 0 136 255 
-18.87794 30.79519 222.4856 0 0 128 255 
-18.87714 17.20333 210.6847 0 0 136 255 
-18.86576 28.09224 220.1506 0 0 136 255 
-18.85523 14.45788 208.3399 0 0 140 255 
-18.85351 18.81889 212.1128 0 0 132 255 
-18.84586 20.44411 213.5277 0 0 132 255 
-18.84062 12.54587 206.6433 0 0 132 255 
-18.83464 2.56752 198.0203 0 0 136 255 
-18.8236 8.022408 202.735 0 0 132 255 
-18.81982 11.33742 205.6032 0 0 128 255 
-18.81245 2.670155 198.116 0 0 136 255 
-18.80694 25.97934 218.3274 0 0 140 255 
-18.80229 16.7006 210.2652 0 0 136 255 
-18.791 2.311592 197.8094 0 0 136 255 
-18.7837 10.27215 204.6894 0 0 128 255 
-18.77555 3.862877 199.1532 0 0 132 255 
-18.77116 12.71236 206.8011 0 0 132 255 
-18.77019 9.90456 204.3728 0 0 128 255 
-18.76516 15.63391 209.3728 0 0 136 255 
-18.76286 3.144889 198.5385 0 0 136 255 
-18.75786 35.18926 223.427 0 0 164 255 
-18.74546 8.403897 203.085 0 0 132 255 
-18.72516 31.86965 223.3045 0 0 132 255 
-18.723 1.214315 196.8699 0 0 136 255 
