ply
format ascii 1.0
comment VCGLIB generated
element vertex 1145
property float x
property float y
property float z
property uchar red
property uchar green
property uchar blue
property uchar alpha
element face 0
property list uchar int vertex_indices
end_header
31.85043 -42.74811 158.466 0 172 255 255 
31.82523 -59.85657 154.9728 0 0 144 255 
31.82901 -58.97297 154.9144 0 0 140 255 
31.84284 -47.59286 152.6753 0 0 200 255 
31.84375 -49.56443 152.1602 0 0 156 255 
31.8499 -50.2669 153.5489 0 0 144 255 
31.85186 -49.92649 152.8916 0 0 148 255 
31.86603 -46.7408 153.4434 0 0 224 255 
31.86591 -62.49998 152.8549 0 0 136 255 
31.87502 -50.64027 154.1827 0 0 128 255 
31.87194 -61.23028 153.7753 0 0 140 255 
31.91677 -35.65149 164.7147 50 255 206 255 
31.89698 -44.64256 156.5665 0 56 255 255 
31.88519 -61.49684 153.6663 0 0 136 255 
31.91352 -43.5151 157.717 0 124 255 255 
31.90278 -53.15095 154.4947 0 0 128 255 
31.90349 -48.51351 151.9239 0 0 168 255 
31.91245 -45.5014 155.2343 0 20 255 255 
31.95613 -37.94275 162.7087 38 255 218 255 
31.96139 -36.31152 164.1277 50 255 206 255 
31.92 -59.93778 155.0357 0 0 144 255 
31.93279 -46.03841 154.1548 0 0 240 255 
31.93731 -51.06149 154.4468 0 0 140 255 
31.95819 -43.86105 157.3561 0 104 255 255 
31.94517 -57.02172 154.84 0 0 136 255 
31.94367 -60.72996 154.3717 0 0 140 255 
31.99545 -39.97231 160.9381 14 255 242 255 
31.9622 -50.03537 153.4479 0 0 140 255 
31.96083 -56.63309 154.8239 0 0 140 255 
31.96252 -61.29487 153.8075 0 0 140 255 
31.97645 -52.12389 154.54 0 0 132 255 
31.98376 -46.4311 153.7605 0 0 224 255 
31.98868 -49.89214 153.2481 0 0 144 255 
31.98172 -59.75389 155.1162 0 0 148 255 
32.00317 -48.09776 152.2905 0 0 176 255 
32.00401 -49.61374 152.7276 0 0 148 255 
32.01483 -50.21495 153.9441 0 0 140 255 
32.01977 -52.72316 154.6082 0 0 128 255 
32.0232 -55.24342 154.7705 0 0 128 255 
32.02456 -63.03703 152.4348 0 0 132 255 
32.03834 -45.00678 156.1182 0 24 255 255 
32.03529 -55.57393 154.8094 0 0 128 255 
32.04515 -50.05124 153.7271 0 0 140 255 
32.04938 -54.26024 154.7299 0 0 132 255 
32.06381 -44.7001 156.4758 0 44 255 255 
32.09744 -38.90678 161.8941 18 255 238 255 
32.05261 -61.34684 153.8348 0 0 144 255 
32.09948 -40.56328 160.4713 0 244 255 255 
32.06616 -50.40146 154.3455 0 0 128 255 
32.07478 -48.38308 152.0788 0 0 164 255 
32.11525 -35.64066 164.8029 22 255 234 255 
32.07813 -59.80635 155.1849 0 0 148 255 
32.08951 -47.19773 153.0761 0 0 204 255 
32.09099 -55.92463 154.9045 0 0 136 255 
32.11069 -43.0233 158.2208 0 132 255 255 
32.13713 -36.96745 163.6147 34 255 222 255 
32.09984 -45.61807 154.7346 0 0 255 255 
32.11144 -44.27586 156.9195 0 60 255 255 
32.12963 -41.99522 159.2263 0 164 255 255 
32.11545 -48.54808 151.9668 0 0 164 255 
32.11586 -53.91394 154.7802 0 0 136 255 
32.16315 -36.66763 163.8866 30 255 226 255 
32.12753 -57.47069 155.0675 0 0 132 255 
32.13601 -45.67915 154.5645 0 0 252 255 
32.13171 -60.00593 155.1199 0 0 148 255 
32.14807 -46.70481 153.5409 0 0 204 255 
32.16806 -42.2291 159.0089 0 152 255 255 
32.17674 -42.52478 158.7267 0 140 255 255 
32.15284 -61.381 153.8676 0 0 144 255 
32.1726 -49.3255 152.671 0 0 144 255 
32.21621 -37.45742 163.2173 22 255 234 255 
32.17231 -60.75834 154.2119 0 0 140 255 
32.21771 -39.93768 161.036 0 244 255 255 
32.21368 -36.08858 164.4238 18 255 238 255 
32.1859 -59.85266 155.2324 0 0 148 255 
32.20647 -47.00264 153.29 0 0 192 255 
32.21393 -55.23443 154.9753 0 0 132 255 
32.21662 -63.46022 152.1159 0 0 132 255 
32.22943 -56.61845 155.1054 0 0 140 255 
32.24492 -51.19358 154.8237 0 0 132 255 
32.24938 -44.79763 156.2624 0 28 255 255 
32.24762 -55.14232 155.0058 0 0 136 255 
32.24905 -54.12057 154.9383 0 0 136 255 
32.25066 -56.04301 155.0791 0 0 136 255 
32.24599 -60.19579 155.0169 0 0 148 255 
32.26683 -44.673 156.4597 0 24 255 255 
32.27389 -44.23877 156.9355 0 48 255 255 
32.2621 -56.94668 155.1672 0 0 144 255 
32.26757 -53.61446 154.9237 0 0 128 255 
32.27272 -45.82038 154.3938 0 0 236 255 
32.27287 -48.42049 152.1297 0 0 156 255 
32.26957 -59.85651 155.273 0 0 148 255 
32.31327 -41.27781 159.8961 0 188 255 255 
32.28745 -50.19017 154.6143 0 0 128 255 
32.32253 -35.84089 164.6736 10 255 246 255 
32.31905 -41.61506 159.5831 0 180 255 255 
32.34009 -36.36492 164.2066 10 255 246 255 
32.30389 -57.27594 155.2379 0 0 140 255 
32.30519 -61.23009 154.0314 0 0 140 255 
32.34909 -40.84975 160.2725 0 216 255 255 
32.32757 -44.66984 156.4086 0 20 255 255 
32.33109 -44.48725 156.6536 0 32 255 255 
32.32416 -59.48197 155.4341 0 0 148 255 
32.37234 -40.40616 160.6813 0 212 255 255 
32.34071 -60.62498 154.3853 0 0 140 255 
32.38504 -36.92399 163.727 6 255 250 255 
32.3587 -50.76062 154.9415 0 0 128 255 
32.35979 -45.71492 154.5127 0 0 228 255 
32.39581 -40.62203 160.4874 0 212 255 255 
32.36863 -52.27862 154.9889 0 0 132 255 
32.37043 -58.39034 155.4052 0 0 140 255 
32.38335 -49.22623 153.1347 0 0 140 255 
32.4182 -36.44888 164.1549 2 255 254 255 
32.39611 -49.91952 154.5626 0 0 140 255 
32.41161 -42.65349 158.6023 0 116 255 255 
32.40261 -52.0131 155.0242 0 0 136 255 
32.42398 -43.28976 157.9593 0 76 255 255 
32.44658 -38.25022 162.5963 0 228 255 255 
32.44405 -41.05171 160.1139 0 192 255 255 
32.4511 -36.6691 163.9749 0 248 255 255 
32.42707 -55.46927 155.2191 0 0 136 255 
32.43314 -48.31244 152.3016 0 0 144 255 
32.43754 -49.99038 154.7659 0 0 128 255 
32.43473 -57.85817 155.4252 0 0 140 255 
32.45985 -35.33058 165.2109 0 224 255 255 
32.43396 -60.42392 154.7187 0 0 144 255 
32.4477 -54.75106 155.2011 0 0 148 255 
32.48445 -38.96193 161.9646 0 220 255 255 
32.45722 -47.08677 153.2827 0 0 172 255 
32.46329 -51.27645 155.0818 0 0 132 255 
32.47288 -44.70889 156.1874 0 4 255 255 
32.47177 -50.34064 155.0375 0 0 132 255 
32.51144 -40.47766 160.6411 0 196 255 255 
32.47774 -59.39122 155.5722 0 0 148 255 
32.49437 -43.9273 157.2489 0 40 255 255 
32.50142 -43.45087 157.7769 0 60 255 255 
32.50043 -45.21065 155.117 0 0 236 255 
32.53912 -38.23235 162.6393 0 212 255 255 
32.52118 -44.22787 156.9034 0 28 255 255 
32.54709 -38.39584 162.4905 0 212 255 255 
32.55379 -37.09429 163.6255 0 236 255 255 
32.57039 -39.71155 161.3151 0 212 255 255 
32.54421 -60.05083 155.2015 0 0 148 255 
32.5525 -48.47514 152.4249 0 0 140 255 
32.5493 -59.75846 155.4598 0 0 152 255 
32.5588 -62.36121 153.1516 0 0 132 255 
32.56646 -50.98509 155.2055 0 0 136 255 
32.56058 -59.10296 155.6465 0 0 144 255 
32.56707 -49.55684 154.4616 0 0 136 255 
32.57847 -42.95301 158.313 0 72 255 255 
32.56429 -59.9038 155.3495 0 0 152 255 
32.5717 -46.15934 154.1397 0 0 196 255 
32.56974 -59.55963 155.5866 0 0 152 255 
32.58612 -48.69032 152.7021 0 0 132 255 
32.58271 -60.29133 154.8905 0 0 148 255 
32.59382 -45.25621 155.0226 0 0 228 255 
32.63255 -36.48013 164.1785 0 228 255 255 
32.62683 -35.53349 165.0465 0 220 255 255 
32.60762 -49.25677 153.9776 0 0 136 255 
32.63043 -35.14372 165.4178 0 212 255 255 
32.60763 -59.43998 155.6579 0 0 152 255 
32.62547 -44.34562 156.6719 0 4 255 255 
32.62067 -60.6893 154.4723 0 0 140 255 
32.66206 -39.07601 161.8952 0 204 255 255 
32.63483 -50.46992 155.2746 0 0 132 255 
32.66677 -40.33844 160.7889 0 184 255 255 
32.63403 -59.34073 155.7071 0 0 148 255 
32.65693 -42.63017 158.6375 0 84 255 255 
32.64845 -47.55083 152.9465 0 0 152 255 
32.66176 -53.29789 155.3571 0 0 140 255 
32.66935 -56.27679 155.5393 0 0 140 255 
32.70668 -37.46585 163.335 0 212 255 255 
32.68461 -44.65275 156.0583 0 0 240 255 
32.68148 -59.26404 155.7548 0 0 148 255 
32.68864 -54.7464 155.4606 0 0 144 255 
32.68977 -60.93645 154.3862 0 0 140 255 
32.69829 -57.22965 155.6507 0 0 144 255 
32.70503 -51.61591 155.3693 0 0 136 255 
32.7179 -44.13368 156.9344 0 8 255 255 
32.71239 -56.80729 155.6349 0 0 148 255 
32.72121 -48.31939 152.6326 0 0 136 255 
32.71909 -60.74239 154.5041 0 0 140 255 
32.75453 -36.38239 164.2971 0 208 255 255 
32.75957 -38.29948 162.6128 0 192 255 255 
32.74753 -41.89238 159.3715 0 100 255 255 
32.73643 -49.63049 155.0998 0 0 128 255 
32.74332 -44.8974 155.4698 0 0 232 255 
32.74107 -47.4155 153.082 0 0 156 255 
32.74707 -44.97043 155.3447 0 0 228 255 
32.75204 -58.42955 155.7971 0 0 140 255 
32.75108 -60.28085 154.8552 0 0 148 255 
32.75874 -52.78934 155.4537 0 0 144 255 
32.78014 -49.5354 155.0975 0 0 128 255 
32.80982 -40.08582 161.0276 0 176 255 255 
32.81634 -39.7535 161.321 0 180 255 255 
32.81205 -35.51496 165.1138 0 188 255 255 
32.81901 -35.85938 164.7814 0 200 255 255 
32.79754 -47.12919 153.3531 0 0 148 255 
32.83229 -37.4858 163.3405 0 196 255 255 
32.8049 -54.33701 155.5654 0 0 140 255 
32.81079 -59.67463 155.6099 0 0 152 255 
32.81866 -45.13055 155.1633 0 0 216 255 
32.81987 -50.20161 155.4933 0 0 132 255 
32.84975 -37.93393 162.95 0 188 255 255 
32.82937 -49.76825 155.4075 0 0 128 255 
-3.000315 -33.08485 147.3425 204 0 0 255 
-2.970058 -32.84896 147.4349 208 0 0 255 
-2.964821 -29.8359 150.2462 192 0 0 255 
-2.948485 -31.26902 148.0901 208 0 0 255 
-2.940835 -30.13483 148.8721 196 0 0 255 
-2.909008 -30.01398 149.6781 192 0 0 255 
-2.904644 -29.75323 150.8307 204 0 0 255 
-2.887426 -30.01286 149.8393 192 0 0 255 
-2.872417 -30.92233 148.1767 204 0 0 255 
-2.85361 -29.84248 150.7259 196 0 0 255 
-2.832338 -31.7701 147.8913 208 0 0 255 
-2.824931 -33.96367 147.0992 204 0 0 255 
-2.788646 -30.23824 149.1288 196 0 0 255 
-2.786179 -34.34949 147.0098 212 0 0 255 
-2.756636 -33.16309 147.2578 204 0 0 255 
-2.72881 -31.08796 148.0663 208 0 0 255 
-2.709183 -30.36444 148.9057 204 0 0 255 
-2.684568 -30.26461 149.7963 192 0 0 255 
-2.673963 -31.21424 148.0105 208 0 0 255 
-2.652061 -31.77573 147.8408 212 0 0 255 
-2.638739 -29.97842 151.0775 204 0 0 255 
-2.629537 -30.59111 148.4643 200 0 0 255 
-2.620269 -30.45496 148.9928 200 0 0 255 
-2.60736 -30.95365 148.0981 204 0 0 255 
-2.581073 -34.76743 146.8617 208 0 0 255 
-2.565229 -32.19679 147.6815 212 0 0 255 
-2.548446 -32.65984 147.4801 208 0 0 255 
-2.506988 -30.4741 149.7617 192 0 0 255 
-2.495072 -30.62034 148.7312 200 0 0 255 
-2.492059 -30.15769 151.0373 204 0 0 255 
-2.48369 -30.26014 150.7632 204 0 0 255 
-2.482092 -31.67453 147.8177 212 0 0 255 
-2.447696 -30.48297 150.0522 192 0 0 255 
-2.404275 -30.96138 148.1386 204 0 0 255 
-2.387489 -33.43862 147.0831 212 0 0 255 
-2.372391 -30.92493 148.1941 204 0 0 255 
-2.359987 -34.54067 146.8459 212 0 0 255 
-2.353539 -31.9322 147.7063 216 0 0 255 
-2.342265 -33.99475 146.9424 204 0 0 255 
-2.339264 -33.64009 147.0124 208 0 0 255 
-2.339912 -33.34791 147.1198 208 0 0 255 
-2.29456 -30.65759 150.0186 192 0 0 255 
-2.276417 -30.86625 148.544 196 0 0 255 
-2.264996 -30.89346 148.3754 200 0 0 255 
-2.254132 -30.42935 150.988 204 0 0 255 
-2.253811 -32.02892 147.6482 216 0 0 255 
-2.213743 -31.08259 148.0995 208 0 0 255 
-2.202345 -30.70922 150.1982 188 0 0 255 
-2.182614 -31.08174 148.1251 208 0 0 255 
-2.15379 -33.69914 146.947 204 0 0 255 
-2.141309 -30.95901 149.1839 200 0 0 255 
-2.09993 -33.46055 147.0431 208 0 0 255 
-2.090017 -30.63002 150.8856 200 0 0 255 
-2.060601 -30.55562 151.1919 204 0 0 255 
-2.054252 -32.52401 147.4405 208 0 0 255 
-2.043986 -33.6342 146.9535 208 0 0 255 
-2.03427 -31.48295 147.7698 208 0 0 255 
-2.027565 -31.08904 149.0523 200 0 0 255 
-2.015135 -31.93024 147.5922 208 0 0 255 
-1.984385 -30.65765 151.1226 204 0 0 255 
-1.965773 -31.32884 147.9386 208 0 0 255 
-1.962054 -31.20202 148.2965 204 0 0 255 
-1.951801 -32.89154 147.2913 204 0 0 255 
-1.917847 -34.72357 146.698 224 0 0 255 
-1.906535 -30.81246 150.8863 204 0 0 255 
-1.886459 -31.29456 148.0949 204 0 0 255 
-1.874471 -33.51784 147.0014 208 0 0 255 
-1.851646 -31.23267 149.3868 204 0 0 255 
-1.834223 -31.30149 148.7728 200 0 0 255 
-1.812513 -32.86603 147.2778 204 0 0 255 
-1.796159 -31.30972 149.1809 204 0 0 255 
-1.757057 -31.17758 150.1347 204 0 0 255 
-1.749095 -31.38552 148.7341 200 0 0 255 
-1.74736 -31.31773 149.5113 208 0 0 255 
-1.741179 -31.55651 147.791 208 0 0 255 
-1.696982 -32.02495 147.4597 208 0 0 255 
-1.675827 -33.10212 147.1648 204 0 0 255 
-1.661079 -31.498 148.1052 208 0 0 255 
-1.647349 -31.55224 147.8894 208 0 0 255 
-1.63075 -34.00346 146.7658 220 0 0 255 
-1.627064 -31.7097 147.6669 208 0 0 255 
-1.599171 -31.50294 149.0653 204 0 0 255 
-1.596145 -31.27244 150.3385 208 0 0 255 
-1.579476 -32.77132 147.2522 208 0 0 255 
-1.56007 -31.55313 148.8781 200 0 0 255 
-1.508505 -32.43649 147.3202 208 0 0 255 
-1.495812 -31.23909 150.737 200 0 0 255 
-1.475583 -31.66761 148.0389 212 0 0 255 
-1.461348 -31.59465 149.4024 208 0 0 255 
-1.428258 -31.69683 148.4919 208 0 0 255 
-1.412699 -31.75952 147.7539 212 0 0 255 
-1.382963 -31.74995 147.8917 212 0 0 255 
-1.356616 -31.73396 148.8709 204 0 0 255 
-1.338483 -34.31176 146.6252 220 0 0 255 
-1.327072 -31.86165 147.6462 212 0 0 255 
-1.320768 -31.99232 147.473 208 0 0 255 
-1.282023 -34.44133 146.5827 220 0 0 255 
-1.268903 -32.45198 147.2451 208 0 0 255 
-1.24792 -31.78253 149.3164 200 0 0 255 
-1.23578 -31.60678 150.2523 208 0 0 255 
-1.218948 -31.83189 149.1099 204 0 0 255 
-1.202701 -31.88861 148.5429 208 0 0 255 
-1.176074 -33.40507 146.9761 216 0 0 255 
-1.160017 -32.18232 147.3329 208 0 0 255 
-1.127773 -31.96448 147.6793 212 0 0 255 
-1.104263 -32.66409 147.1539 208 0 0 255 
-1.089652 -34.62514 146.5027 216 0 0 255 
-1.075973 -31.94208 149.18 200 0 0 255 
-1.057067 -32.01704 147.9684 208 0 0 255 
-1.04222 -34.43216 146.558 220 0 0 255 
-1.02812 -32.16862 147.3691 208 0 0 255 
-0.996389 -32.92348 147.066 208 0 0 255 
-0.9784039 -31.53884 151.194 204 0 0 255 
-0.942997 -33.3464 146.9441 216 0 0 255 
-0.900206 -33.64289 146.8461 208 0 0 255 
-0.895429 -32.31818 147.2547 204 0 0 255 
-0.8827329 -32.34809 147.2338 200 0 0 255 
-0.868399 -34.69669 146.4534 220 0 0 255 
-0.8299906 -33.17164 146.9624 212 0 0 255 
-0.8103237 -31.95259 150.2582 208 0 0 255 
-0.7921014 -32.22298 147.6917 208 0 0 255 
-0.783662 -32.16053 149.254 196 0 0 255 
-0.7586707 -32.31101 147.3439 204 0 0 255 
-0.7451553 -32.23372 148.908 204 0 0 255 
-0.7241462 -31.78422 151.07 204 0 0 255 
-0.7113388 -32.28606 147.493 208 0 0 255 
-0.7002037 -32.29911 148.3443 212 0 0 255 
-0.6707705 -32.12077 150.0199 212 0 0 255 
-0.653913 -31.95106 150.7258 212 0 0 255 
-0.6146842 -32.44751 147.2311 208 0 0 255 
-0.6099631 -32.05322 150.4807 212 0 0 255 
-0.5881058 -32.37849 147.5872 212 0 0 255 
-0.5845171 -33.64599 146.7793 208 0 0 255 
-0.5639667 -32.53336 147.1526 208 0 0 255 
-0.537786 -32.41441 147.501 208 0 0 255 
-0.5141162 -32.93568 146.9187 212 0 0 255 
-0.4811247 -32.12297 150.5898 212 0 0 255 
-0.4750356 -32.37851 149.3731 204 0 0 255 
-0.4472309 -32.24332 150.2083 212 0 0 255 
-0.426399 -34.61895 146.4525 216 0 0 255 
-0.4112323 -32.8614 146.9189 208 0 0 255 
-0.3935611 -32.52803 147.9688 208 0 0 255 
-0.3820168 -31.99868 151.2321 200 0 0 255 
-0.3820253 -32.12532 150.8476 212 0 0 255 
-0.373319 -32.52361 148.7757 208 0 0 255 
-0.3514655 -34.4919 146.4923 212 0 0 255 
-0.3160555 -32.57538 147.7237 204 0 0 255 
-0.3034562 -32.61501 147.1749 200 0 0 255 
-0.2865111 -32.58665 147.2802 200 0 0 255 
-0.2685084 -32.10675 151.1554 200 0 0 255 
-0.23564 -32.63844 148.2853 204 0 0 255 
-0.2322283 -32.48954 149.7137 196 0 0 255 
-0.1921672 -32.74193 147.0421 196 0 0 255 
-0.1886351 -32.66157 148.5722 204 0 0 255 
-0.1432238 -32.70239 147.979 204 0 0 255 
-0.1315028 -32.4784 150.119 196 0 0 255 
-0.1224009 -32.63689 149.2918 200 0 0 255 
-0.1076939 -33.67315 146.6605 204 0 0 255 
-0.09118171 -34.48298 146.4672 208 0 0 255 
-0.0858731 -32.73935 148.4088 204 0 0 255 
-0.04324079 -34.14271 146.5563 208 0 0 255 
-0.0136573 -32.59229 149.9502 192 0 0 255 
0.005739504 -33.224 146.709 200 0 0 255 
0.04093523 -33.028 146.8407 200 0 0 255 
0.06856687 -33.63761 146.6235 204 0 0 255 
0.09382253 -32.84296 148.7176 200 0 0 255 
0.1123453 -34.50126 146.4402 212 0 0 255 
0.1177754 -32.73518 149.6771 196 0 0 255 
0.147842 -32.89024 147.6421 196 0 0 255 
0.1555285 -32.51439 150.8017 204 0 0 255 
0.1721317 -33.04709 146.8461 200 0 0 255 
0.2180149 -33.58983 146.5904 204 0 0 255 
0.2337943 -32.85943 149.3776 192 0 0 255 
0.2506781 -32.96398 147.9315 196 0 0 255 
0.29514 -33.37646 146.6272 200 0 0 255 
0.2960069 -32.55722 150.9741 200 0 0 255 
0.326698 -32.72902 150.376 196 0 0 255 
0.3527781 -34.45949 146.4093 204 0 0 255 
0.3595418 -33.00959 147.1455 200 0 0 255 
0.3786966 -32.68727 150.7249 208 0 0 255 
0.4182769 -34.63091 146.3632 204 0 0 255 
0.4414381 -33.07615 147.5365 196 0 0 255 
0.4519209 -33.20313 146.7728 204 0 0 255 
0.5155034 -33.10371 146.9804 200 0 0 255 
0.526382 -32.65797 151.1471 204 0 0 255 
0.5493728 -33.15268 147.8161 196 0 0 255 
0.5803345 -32.88412 150.4192 200 0 0 255 
0.5992727 -32.96155 150.0981 192 0 0 255 
0.6119389 -33.88936 146.4599 208 0 0 255 
0.649055 -33.1478 149.2297 200 0 0 255 
0.6629344 -33.22999 146.8419 200 0 0 255 
0.6870183 -33.23584 148.3454 196 0 0 255 
0.71403 -33.78587 146.4548 204 0 0 255 
0.7306793 -32.84761 150.9399 208 0 0 255 
0.7626714 -32.95818 150.5853 204 0 0 255 
0.7991962 -34.69604 146.2918 204 0 0 255 
0.8213765 -33.28072 146.932 196 0 0 255 
0.8320935 -33.29232 147.1154 192 0 0 255 
0.869368 -33.52959 146.5805 196 0 0 255 
0.8933012 -33.33987 148.7376 196 0 0 255 
0.9544312 -33.39056 147.9142 188 0 0 255 
0.9620766 -33.38314 146.7698 188 0 0 255 
0.9697412 -33.39939 148.2659 184 0 0 255 
0.9797146 -33.11263 150.435 188 0 0 255 
1.017559 -33.21782 150.0569 188 0 0 255 
1.064246 -33.69713 146.4959 200 0 0 255 
1.104823 -33.46676 148.546 184 0 0 255 
1.117705 -33.43693 149.055 188 0 0 255 
1.1854 -33.73101 146.4831 200 0 0 255 
1.226606 -33.17638 150.7538 196 0 0 255 
1.261152 -33.53461 146.7131 192 0 0 255 
1.266885 -33.1321 151.0189 204 0 0 255 
1.302331 -33.58482 148.4066 192 0 0 255 
1.339408 -33.72444 146.5034 200 0 0 255 
1.346835 -34.14666 146.2766 200 0 0 255 
1.365294 -33.67455 146.5625 200 0 0 255 
1.379253 -33.62841 147.9318 188 0 0 255 
1.404536 -33.59783 146.802 196 0 0 255 
1.435934 -33.64569 148.6813 192 0 0 255 
1.454612 -33.46955 150.0374 196 0 0 255 
1.503378 -33.69984 148.266 196 0 0 255 
1.521653 -34.35266 146.2151 200 0 0 255 
1.555447 -33.68098 146.9099 196 0 0 255 
1.632783 -33.76072 147.6375 200 0 0 255 
1.667896 -33.78176 148.4036 196 0 0 255 
1.690527 -33.73932 146.6959 200 0 0 255 
1.723686 -33.79403 146.5626 200 0 0 255 
1.740795 -33.8121 147.5819 200 0 0 255 
1.760358 -33.99456 146.3676 204 0 0 255 
1.76744 -34.5509 146.1535 200 0 0 255 
1.773404 -33.83775 148.077 196 0 0 255 
1.799112 -33.79575 146.7857 204 0 0 255 
1.842778 -33.91296 146.4571 204 0 0 255 
1.876442 -33.3733 151.303 212 0 0 255 
1.907127 -33.80445 149.4724 200 0 0 255 
1.913919 -33.49829 150.9247 204 0 0 255 
2.009548 -34.66947 146.1068 204 0 0 255 
2.020311 -33.95502 147.7182 204 0 0 255 
2.023994 -33.89685 146.6316 204 0 0 255 
2.051167 -34.30984 146.2114 200 0 0 255 
2.131258 -33.96234 149.0988 204 0 0 255 
2.152539 -34.11946 146.3321 204 0 0 255 
2.153773 -33.63046 150.8586 200 0 0 255 
2.214864 -34.03805 147.5552 204 0 0 255 
2.241522 -34.00016 146.7409 204 0 0 255 
2.242032 -33.55058 151.2891 208 0 0 255 
2.269354 -34.07639 147.9169 204 0 0 255 
2.271494 -34.03436 147.0758 200 0 0 255 
2.300592 -34.01874 146.6002 204 0 0 255 
2.32241 -34.27648 146.2517 208 0 0 255 
2.374434 -33.63501 151.2167 208 0 0 255 
2.40277 -34.25912 146.2701 204 0 0 255 
2.41345 -34.13947 148.3727 204 0 0 255 
2.472847 -33.97967 150.022 208 0 0 255 
2.48967 -33.88361 150.4854 204 0 0 255 
2.513433 -34.17247 148.5937 204 0 0 255 
2.571564 -34.15685 146.4559 204 0 0 255 
2.591345 -34.09134 149.6801 208 0 0 255 
2.598872 -34.22304 147.8679 208 0 0 255 
2.618334 -34.23201 148.2274 208 0 0 255 
2.646458 -34.22441 148.7222 208 0 0 255 
2.701997 -34.26641 147.9213 208 0 0 255 
2.722175 -34.32758 146.2821 204 0 0 255 
2.754578 -34.2345 146.8415 208 0 0 255 
2.7924 -34.28 147.3229 204 0 0 255 
2.809561 -34.19355 149.618 208 0 0 255 
2.824619 -34.31015 147.7208 208 0 0 255 
2.850163 -34.31878 146.3378 200 0 0 255 
2.851676 -34.1099 150.1785 212 0 0 255 
2.87647 -34.35238 146.3084 204 0 0 255 
2.934686 -34.36275 148.0668 212 0 0 255 
2.991575 -34.36672 148.6205 204 0 0 255 
3.020881 -34.0493 150.708 204 0 0 255 
3.063425 -34.33891 149.2588 204 0 0 255 
3.085597 -34.32884 149.4187 208 0 0 255 
3.141358 -34.62258 146.1425 196 0 0 255 
3.159205 -34.40541 146.3759 200 0 0 255 
3.164299 -34.52684 146.2161 196 0 0 255 
3.188331 -34.3986 149.1487 204 0 0 255 
3.206715 -34.46446 148.0411 208 0 0 255 
3.269935 -34.48064 146.3105 200 0 0 255 
3.276368 -34.48299 147.7492 204 0 0 255 
3.285025 -34.15187 150.6799 192 0 0 255 
3.365192 -34.51105 147.5598 204 0 0 255 
3.373808 -34.49543 148.8061 200 0 0 255 
3.413752 -34.03877 151.2486 192 0 0 255 
3.425758 -34.4684 149.248 196 0 0 255 
3.518429 -34.6606 146.1879 200 0 0 255 
3.533056 -34.51451 146.607 200 0 0 255 
3.54606 -34.52197 146.4065 200 0 0 255 
3.598858 -34.55945 146.9133 204 0 0 255 
3.605511 -34.46011 149.7742 200 0 0 255 
3.616043 -34.59972 147.7817 200 0 0 255 
3.671265 -34.55088 146.463 200 0 0 255 
3.692761 -34.21453 150.9729 188 0 0 255 
3.729314 -34.73353 146.1613 200 0 0 255 
3.751104 -34.61589 148.7957 188 0 0 255 
3.776067 -34.61856 146.9646 200 0 0 255 
3.776468 -34.37637 150.4724 196 0 0 255 
3.820869 -34.60775 149.1388 188 0 0 255 
3.855397 -34.26245 150.9998 188 0 0 255 
3.902322 -34.5993 149.435 188 0 0 255 
3.933441 -34.55469 149.8391 196 0 0 255 
3.947371 -34.74976 146.1811 200 0 0 255 
4.038095 -34.44897 150.5368 196 0 0 255 
4.054787 -34.73501 148.4985 196 0 0 255 
4.069992 -34.74373 147.6954 200 0 0 255 
4.154185 -34.63858 149.7781 200 0 0 255 
4.187718 -34.75129 147.0326 204 0 0 255 
4.245929 -34.72935 146.3427 196 0 0 255 
4.282133 -34.49168 150.6858 200 0 0 255 
4.343643 -34.75564 146.3867 200 0 0 255 
4.407883 -34.58252 150.4828 204 0 0 255 
4.689097 -34.60644 150.7013 200 0 0 255 
4.855732 -34.51752 151.1813 196 0 0 255 
5.114765 -34.71633 150.692 196 0 0 255 
5.1984 -34.59234 151.2161 196 0 0 255 
5.5591 -34.7537 150.9388 196 0 0 255 
12.28209 -34.57306 151.1262 204 0 0 255 
12.47792 -34.56211 150.9422 204 0 0 255 
12.7304 -34.60591 150.3768 204 0 0 255 
12.86874 -34.76737 148.6042 212 0 0 255 
12.91887 -34.43472 150.9409 204 0 0 255 
12.95293 -34.7483 148.3693 216 0 0 255 
13.03558 -34.58622 150.0028 212 0 0 255 
13.16806 -34.69776 148.3615 216 0 0 255 
13.23196 -34.26796 151.2158 200 0 0 255 
13.34006 -34.55296 149.5552 220 0 0 255 
13.36363 -34.60098 148.792 216 0 0 255 
13.42016 -34.25119 151.0321 204 0 0 255 
13.51937 -34.55956 148.5743 216 0 0 255 
13.59482 -34.6871 148.4099 212 0 0 255 
13.68961 -34.54529 148.5816 212 0 0 255 
13.77159 -34.45933 148.785 216 0 0 255 
13.80377 -34.14563 150.8917 200 0 0 255 
13.85856 -34.54237 148.6046 212 0 0 255 
13.94537 -34.31031 149.717 212 0 0 255 
14.02068 -34.54976 148.6284 208 0 0 255 
14.07526 -34.10172 150.6036 204 0 0 255 
14.09514 -34.76272 148.5345 208 0 0 255 
14.14228 -34.28625 149.2296 212 0 0 255 
14.25027 -33.90801 151.1371 204 0 0 255 
14.28335 -34.01815 150.5761 204 0 0 255 
14.33356 -34.41235 148.8402 212 0 0 255 
14.36804 -34.19762 149.2019 216 0 0 255 
14.44713 -33.906 150.7658 204 0 0 255 
14.48006 -34.63538 148.7612 212 0 0 255 
14.56692 -34.13857 149.1941 216 0 0 255 
14.5868 -33.98488 150.0092 204 0 0 255 
14.635 -34.27969 149.0371 216 0 0 255 
14.64126 -34.46425 148.9154 212 0 0 255 
14.7452 -33.77118 150.7258 200 0 0 255 
14.77559 -33.82786 150.351 200 0 0 255 
14.8293 -33.92155 149.6827 204 0 0 255 
14.86789 -33.95757 149.4698 208 0 0 255 
14.88967 -33.85067 149.9164 204 0 0 255 
14.97494 -33.86008 149.6545 208 0 0 255 
15.00207 -33.72073 150.3362 204 0 0 255 
15.04295 -33.95835 149.47 212 0 0 255 
15.08246 -34.15038 149.2826 216 0 0 255 
15.12212 -33.87436 149.6021 212 0 0 255 
15.13072 -34.5426 149.1148 220 0 0 255 
15.1651 -33.69139 150.0603 204 0 0 255 
15.19032 -34.00175 149.4344 216 0 0 255 
15.21777 -33.9738 149.4807 216 0 0 255 
15.28052 -33.63656 150.0594 204 0 0 255 
15.30653 -34.5727 149.1903 220 0 0 255 
15.33081 -33.9074 149.5685 212 0 0 255 
15.37997 -33.99777 149.5024 216 0 0 255 
15.42481 -33.68453 149.8197 204 0 0 255 
15.45814 -33.57894 149.9992 204 0 0 255 
15.4619 -33.71603 149.7917 204 0 0 255 
15.52793 -33.48175 150.2419 204 0 0 255 
15.61154 -33.55151 149.9843 204 0 0 255 
15.62743 -33.84074 149.6993 208 0 0 255 
15.686 -33.25084 150.9808 208 0 0 255 
15.73224 -33.29227 150.7008 204 0 0 255 
15.75592 -33.34051 150.4192 204 0 0 255 
15.77104 -33.2126 150.9586 208 0 0 255 
15.83508 -33.27719 150.5414 204 0 0 255 
15.86189 -33.40324 150.1628 208 0 0 255 
15.88156 -33.20069 150.7767 204 0 0 255 
15.91626 -33.30574 150.344 204 0 0 255 
16.01167 -33.75504 149.9066 208 0 0 255 
16.07973 -33.54912 150.0612 208 0 0 255 
16.10149 -33.4982 150.1041 208 0 0 255 
16.14799 -33.07298 150.7411 208 0 0 255 
16.20553 -33.30434 150.2837 208 0 0 255 
16.27569 -33.11172 150.5255 208 0 0 255 
16.32331 -33.91574 149.9919 204 0 0 255 
16.36636 -34.4692 149.7942 208 0 0 255 
16.44075 -33.55554 150.2245 204 0 0 255 
16.52636 -34.17933 149.9925 200 0 0 255 
16.57149 -32.94759 150.6994 204 0 0 255 
16.59491 -33.96921 150.1205 204 0 0 255 
16.73311 -33.16432 150.5958 204 0 0 255 
16.75913 -32.76596 150.872 204 0 0 255 
16.77617 -34.2094 150.1328 204 0 0 255 
16.86171 -33.84413 150.3359 208 0 0 255 
16.87703 -33.33253 150.5772 208 0 0 255 
16.89799 -32.61095 151.0372 204 0 0 255 
17.01509 -34.11059 150.3187 204 0 0 255 
17.04199 -32.45879 151.2121 204 0 0 255 
17.15471 -32.58589 151.1616 204 0 0 255 
17.21727 -34.57933 150.2933 200 0 0 255 
17.32887 -34.66767 150.346 200 0 0 255 
17.41632 -32.92006 151.0965 204 0 0 255 
17.43902 -34.055 150.6198 204 0 0 255 
17.62346 -33.72212 150.8734 200 0 0 255 
17.64253 -34.41053 150.6509 204 0 0 255 
17.73935 -33.77711 150.9306 200 0 0 255 
17.78804 -33.0117 151.2894 200 0 0 255 
17.86725 -33.1605 151.2745 196 0 0 255 
17.96505 -33.43391 151.2241 192 0 0 255 
18.02452 -34.67353 150.8652 200 0 0 255 
18.12362 -34.29263 151.0471 196 0 0 255 
-3.006038 -21.82377 157.4205 196 0 0 255 
-2.999237 -27.3781 154.4565 204 0 0 255 
-3.036218 -12.75205 176.6341 255 224 0 255 
-2.987818 -20.9402 157.5723 200 0 0 255 
-3.127041 -9.675218 184.2937 0 0 144 255 
-2.981079 -17.28248 163.188 200 0 0 255 
-3.110812 -9.750915 185.9744 0 0 156 255 
-2.973552 -28.73003 152.7664 208 0 0 255 
-3.107871 -9.784121 186.9633 0 0 140 255 
-2.971236 -14.84402 169.0692 172 0 0 255 
-2.99227 -12.93701 176.056 255 176 0 255 
-2.960056 -17.814 161.8222 200 0 0 255 
-3.082645 -7.810787 180.1683 0 0 236 255 
-2.951956 -24.85624 156.4432 204 0 0 255 
-2.947344 -17.65951 162.2082 200 0 0 255 
-3.057522 -7.70479 179.3678 0 56 255 255 
-2.939656 -19.92204 157.9522 196 0 0 255 
-2.943561 -16.21775 165.8329 200 0 0 255 
-2.938751 -17.43481 162.7802 204 0 0 255 
-3.071725 -8.90728 181.5781 0 0 204 255 
-2.935934 -15.57596 167.3651 180 0 0 255 
-2.931909 -25.99899 155.7491 204 0 0 255 
-3.068428 -9.537762 182.6 0 0 196 255 
-2.953093 -12.99707 175.8502 255 164 0 255 
-2.91425 -27.59583 154.3614 200 0 0 255 
-2.903094 -29.13455 152.2185 200 0 0 255 
-2.89977 -20.12296 157.8268 200 0 0 255 
-2.904848 -13.2069 174.4234 255 48 0 255 
-2.884317 -22.8348 157.3223 196 0 0 255 
-2.880172 -20.20499 157.8017 204 0 0 255 
-2.877488 -25.62117 156.0942 208 0 0 255 
-2.979429 -7.840901 179.1987 0 100 255 255 
-2.870049 -19.41613 158.5516 192 0 0 255 
-2.916436 -12.00777 177.9624 166 255 90 255 
-2.856757 -18.99943 159.1976 200 0 0 255 
-2.902163 -12.3408 177.544 202 255 54 255 
-2.875776 -13.03135 175.7225 255 156 0 255 
-2.841866 -24.27315 156.8579 200 0 0 255 
-2.841425 -19.94697 157.9617 200 0 0 255 
-2.87831 -12.80883 176.5167 255 212 0 255 
-2.839784 -16.3924 165.3428 192 0 0 255 
-2.829644 -23.33669 157.2274 192 0 0 255 
-2.829935 -26.47231 155.5345 204 0 0 255 
-2.825841 -26.81473 155.2438 200 0 0 255 
-2.823085 -21.93168 157.6091 196 0 0 255 
-2.955976 -8.498859 181.1223 0 0 128 255 
-2.838663 -13.16119 174.9766 255 100 0 255 
-2.952497 -9.549271 182.8434 0 0 192 255 
-2.901786 -9.564512 178.8236 0 236 255 255 
-2.837833 -12.90823 176.1934 255 184 0 255 
-2.931229 -7.765657 180.1783 0 0 240 255 
-2.799393 -15.45491 167.6116 176 0 0 255 
-2.79784 -25.34097 156.3716 208 0 0 255 
-2.93435 -9.494346 182.5288 0 0 204 255 
-2.783744 -19.7636 158.128 192 0 0 255 
-2.781963 -20.92144 157.8018 200 0 0 255 
-2.869636 -8.926066 178.8366 0 200 255 255 
-2.772979 -17.72194 161.9252 200 0 0 255 
-2.767204 -29.11112 152.5702 204 0 0 255 
-2.775855 -13.18954 173.4435 248 0 0 255 
-2.7721 -13.30345 172.6643 228 0 0 255 
-2.84436 -10.09566 178.801 26 255 230 255 
-2.893404 -8.699717 181.4036 0 0 208 255 
-2.756425 -15.3243 167.9129 176 0 0 255 
-2.768538 -13.18911 173.1446 240 0 0 255 
-2.752613 -18.22972 160.6423 200 0 0 255 
-2.747537 -20.42843 157.8763 204 0 0 255 
-2.74315 -14.32725 170.1822 152 0 0 255 
-2.739945 -16.71744 164.4771 196 0 0 255 
-2.871957 -9.028888 181.8172 0 0 204 255 
-2.797666 -11.73172 178.251 138 255 118 255 
-2.717375 -20.29314 157.9138 204 0 0 255 
-2.712032 -26.5998 155.5925 204 0 0 255 
-2.844926 -8.274014 180.9473 0 0 212 255 
-2.7023 -29.02543 152.858 208 0 0 255 
-2.836763 -9.8212 187.7557 0 0 164 255 
-2.686457 -24.55092 156.9133 196 0 0 255 
-2.686982 -18.68685 159.6846 208 0 0 255 
-2.749659 -11.45086 178.4635 106 255 150 255 
-2.672456 -22.28285 157.701 196 0 0 255 
-2.668862 -22.74276 157.5948 200 0 0 255 
-2.66479 -19.61051 158.2945 192 0 0 255 
-2.663938 -29.8143 151.4254 208 0 0 255 
-2.706411 -12.57894 177.1566 242 255 14 255 
-2.652789 -28.02032 154.3128 200 0 0 255 
-2.774052 -7.590703 179.8802 0 4 255 255 
-2.692198 -12.20137 177.775 194 255 62 255 
-2.632782 -28.16726 154.1858 204 0 0 255 
-2.62727 -23.5353 157.3872 188 0 0 255 
-2.64162 -13.17896 173.9545 255 24 0 255 
-2.627385 -14.90747 168.8724 176 0 0 255 
-2.622637 -15.57468 167.2949 184 0 0 255 
-2.619002 -17.2608 163.0392 200 0 0 255 
-2.616507 -25.52955 156.4801 204 0 0 255 
-2.614669 -25.88198 156.2573 204 0 0 255 
-2.710202 -8.650354 178.8763 0 196 255 255 
-2.608905 -28.98371 153.113 208 0 0 255 
-2.657536 -12.39082 177.5154 214 255 42 255 
-2.600221 -19.71584 158.2057 192 0 0 255 
-2.678973 -10.36995 178.8081 42 255 214 255 
-2.721415 -7.69478 180.1565 0 0 244 255 
-2.724804 -9.255387 182.1912 0 0 212 255 
-2.585127 -14.44518 169.9006 156 0 0 255 
-2.577189 -23.0423 157.6025 192 0 0 255 
-2.710025 -8.001351 180.6226 0 0 224 255 
-2.570411 -27.95497 154.5202 200 0 0 255 
-2.568323 -17.57705 162.1787 204 0 0 255 
-2.567089 -15.91217 166.4671 196 0 0 255 
-2.553031 -29.98096 151.3345 212 0 0 255 
-2.542576 -20.89171 158.0609 204 0 0 255 
-2.53677 -21.3781 158.0115 196 0 0 255 
-2.534638 -29.33953 152.6709 204 0 0 255 
-2.545089 -13.15934 174.5573 255 52 0 255 
-2.553283 -13.05046 175.6488 255 148 0 255 
-2.651002 -7.639397 180.0761 0 0 244 255 
-2.521438 -22.03238 157.9152 192 0 0 255 
-2.511268 -24.37626 157.1909 192 0 0 255 
-2.657408 -9.549593 183.0723 0 0 168 255 
-2.508632 -28.7914 153.5973 212 0 0 255 
-2.504807 -19.45129 158.4772 192 0 0 255 
-2.498479 -19.31599 158.6402 196 0 0 255 
-2.498208 -14.03155 170.8436 156 0 0 255 
-2.484542 -16.77445 164.2154 196 0 0 255 
-2.475982 -19.95788 158.1701 196 0 0 255 
-2.472521 -21.20261 158.1014 200 0 0 255 
-2.605865 -8.869725 181.7276 0 0 216 255 
-2.604165 -9.419313 182.5002 0 0 200 255 
-2.452195 -27.15299 155.4611 192 0 0 255 
-2.465439 -13.13887 173.2108 228 0 0 255 
-2.451662 -22.6377 157.854 196 0 0 255 
-2.526643 -10.84236 178.7402 82 255 174 255 
-2.587641 -9.198657 182.1632 0 0 208 255 
-2.587053 -9.662818 184.9315 0 0 148 255 
-2.580364 -8.506843 181.3637 0 0 212 255 
-2.441396 -17.92405 161.1763 204 0 0 255 
-2.438559 -17.01947 163.5695 200 0 0 255 
-2.571682 -9.788566 187.508 0 0 156 255 
-2.431721 -17.47804 162.3592 204 0 0 255 
-2.425726 -25.70615 156.5999 200 0 0 255 
-2.418436 -20.21316 158.217 196 0 0 255 
-2.422797 -13.81172 171.3797 172 0 0 255 
-2.4177 -30.12232 151.3461 208 0 0 255 
-2.404702 -27.45909 155.2449 192 0 0 255 
-2.404292 -14.59276 169.5508 164 0 0 255 
-2.535543 -7.868798 180.5055 0 0 224 255 
-2.393066 -28.37006 154.319 200 0 0 255 
-2.398319 -13.44228 172.3003 200 0 0 255 
-2.389272 -28.76991 153.8222 200 0 0 255 
-2.385364 -25.50882 156.7645 196 0 0 255 
-2.384481 -17.83582 161.3636 204 0 0 255 
-2.381085 -19.78178 158.2942 192 0 0 255 
-2.38185 -13.6042 171.8687 172 0 0 255 
-2.370834 -29.01085 153.5252 208 0 0 255 
-2.450483 -10.05229 178.8896 30 255 226 255 
-2.452503 -9.643078 178.9267 2 255 254 255 
-2.375327 -13.16642 172.9498 216 0 0 255 
-2.356813 -27.75219 155.0342 196 0 0 255 
-2.455129 -8.173143 178.9983 0 176 255 255 
-2.376084 -13.0166 175.7824 255 140 0 255 
-2.347733 -24.23797 157.433 192 0 0 255 
-2.343524 -23.53834 157.6995 192 0 0 255 
-2.343949 -16.22887 165.5948 200 0 0 255 
-2.441281 -8.006367 179.1459 0 132 255 255 
-2.472204 -9.592317 183.8413 0 0 140 255 
-2.336759 -18.19332 160.4711 200 0 0 255 
-2.328832 -20.70936 158.2884 204 0 0 255 
-2.334932 -13.19016 172.9034 216 0 0 255 
-2.319676 -21.13281 158.2648 204 0 0 255 
-2.452259 -8.164471 180.9695 0 0 216 255 
-2.309608 -15.13496 168.2657 172 0 0 255 
-2.299531 -17.14555 163.1758 204 0 0 255 
-2.423904 -7.657504 180.2101 0 0 244 255 
-2.289306 -14.02177 170.8487 152 0 0 255 
-2.295968 -13.12214 174.8632 255 60 0 255 
-2.278185 -17.60865 161.8898 200 0 0 255 
-2.310669 -12.75495 176.8052 255 216 0 255 
-2.269135 -27.05789 155.7894 196 0 0 255 
-2.27032 -25.83871 156.7047 204 0 0 255 
-2.261549 -27.92899 154.99 196 0 0 255 
-2.263951 -15.40111 167.6189 180 0 0 255 
-2.400345 -9.354668 182.4586 0 0 196 255 
-2.247943 -16.84636 163.9324 200 0 0 255 
-2.246682 -17.36097 162.5577 204 0 0 255 
-2.244296 -30.18292 151.6564 208 0 0 255 
-2.240252 -14.84739 168.9471 176 0 0 255 
-2.254605 -13.06354 175.485 255 116 0 255 
-2.229567 -16.69162 164.3287 200 0 0 255 
-2.225018 -26.36891 156.39 196 0 0 255 
-2.369176 -9.560343 183.4642 0 0 152 255 
-2.220402 -14.6981 169.29 172 0 0 255 
-2.33948 -7.531275 179.7739 0 16 255 255 
-2.197243 -22.21964 158.2106 192 0 0 255 
-2.192128 -24.76201 157.3744 196 0 0 255 
-2.319996 -7.576426 180.0926 0 0 240 255 
-2.180877 -30.00488 152.1913 208 0 0 255 
-2.310726 -7.801539 180.4886 0 0 224 255 
-2.185424 -13.11388 173.0892 220 0 0 255 
-2.171428 -29.21779 153.5832 212 0 0 255 
-2.269962 -7.728157 179.5032 0 60 255 255 
-2.180069 -12.92184 176.2426 255 164 0 255 
-2.146004 -19.29037 158.6872 188 0 0 255 
-2.143557 -22.8391 158.1194 192 0 0 255 
-2.280146 -9.626357 184.6068 0 0 148 255 
-2.126569 -28.045 155.0555 196 0 0 255 
-2.121898 -27.56161 155.5227 192 0 0 255 
-2.118699 -20.6074 158.4912 196 0 0 255 
-2.121857 -18.68284 159.4988 204 0 0 255 
-2.113933 -20.23465 158.507 188 0 0 255 
-2.128094 -13.09776 175.1618 255 92 0 255 
-2.105294 -17.82419 161.1918 200 0 0 255 
-2.10532 -15.6802 166.9025 188 0 0 255 
-2.098954 -21.18768 158.4724 200 0 0 255 
-2.242019 -9.438215 182.6974 0 0 196 255 
-2.154458 -11.7642 178.3457 154 255 102 255 
-2.135362 -12.43152 177.5595 234 255 22 255 
-2.089513 -29.46632 153.3468 212 0 0 255 
-2.086573 -29.65114 153.0453 208 0 0 255 
-2.177317 -8.45753 179.0441 0 192 255 255 
-2.080405 -18.9951 159.0266 196 0 0 255 
-2.07874 -30.35329 151.6716 212 0 0 255 
-2.075617 -21.77598 158.4136 192 0 0 255 
-2.074904 -28.80861 154.2786 204 0 0 255 
-2.067059 -15.04859 168.4413 176 0 0 255 
-2.062762 -27.80183 155.381 200 0 0 255 
-2.18071 -7.57604 179.7129 0 36 255 255 
-2.067998 -13.19057 172.9108 212 0 0 255 
-2.053259 -19.75936 158.5729 192 0 0 255 
-2.048519 -19.49826 158.6225 188 0 0 255 
-2.180687 -7.689532 180.3547 0 0 228 255 
-2.043479 -14.37496 170.0072 156 0 0 255 
-2.174766 -7.969924 180.8052 0 0 228 255 
-2.036643 -20.88148 158.5552 196 0 0 255 
-2.02603 -29.21718 153.8346 220 0 0 255 
-2.023739 -18.15362 160.3875 200 0 0 255 
-2.018221 -17.4767 162.0931 208 0 0 255 
-2.010724 -16.29822 165.2841 196 0 0 255 
-1.994176 -19.3088 158.7393 188 0 0 255 
-1.992213 -26.20832 156.7726 200 0 0 255 
-1.991061 -25.85373 157.0045 200 0 0 255 
-2.118544 -9.223681 182.3759 0 0 204 255 
-2.062555 -8.709233 179.0764 0 212 255 255 
-1.957109 -28.08014 155.2438 200 0 0 255 
-1.952432 -19.50136 158.6859 188 0 0 255 
-2.044681 -8.217566 179.102 0 168 255 255 
-1.948829 -13.67809 171.6942 176 0 0 255 
-1.946367 -16.79974 163.9036 196 0 0 255 
-2.094907 -9.523708 183.2084 0 0 156 255 
-1.941318 -15.33376 167.7177 180 0 0 255 
-2.081368 -9.40307 182.6765 0 0 192 255 
-2.07235 -9.692485 186.4503 0 0 132 255 
-1.935659 -30.50405 151.6654 212 0 0 255 
-1.933076 -29.69255 153.2677 212 0 0 255 
-1.929681 -19.1509 158.8673 192 0 0 255 
-1.950786 -12.9951 175.9274 255 136 0 255 
-2.054483 -9.66782 185.9561 0 0 132 255 
-1.918047 -17.58882 161.6971 200 0 0 255 
-1.915909 -19.13682 158.8777 192 0 0 255 
-1.991965 -10.33456 178.9483 54 255 202 255 
-1.90632 -23.96995 157.9961 188 0 0 255 
-1.906701 -27.23209 156.0821 196 0 0 255 
-1.909622 -18.50985 159.7228 204 0 0 255 
-1.900924 -24.96087 157.5823 192 0 0 255 
-1.928216 -12.84995 176.6046 255 192 0 255 
-1.992492 -7.856775 179.3923 0 108 255 255 
-1.937227 -11.55392 178.5534 126 255 130 255 
-1.859631 -14.01 170.8508 152 0 0 255 
-1.863061 -17.1519 162.9048 204 0 0 255 
-1.853146 -29.96956 152.937 208 0 0 255 
-1.849617 -23.28654 158.284 192 0 0 255 
-1.976965 -7.506935 180.0655 0 0 252 255 
-1.837579 -22.5988 158.4769 188 0 0 255 
-1.842193 -16.19919 165.5007 200 0 0 255 
-1.945086 -7.712676 179.5779 0 72 255 255 
-1.833672 -19.89451 158.7742 188 0 0 255 
-1.834358 -17.69743 161.3434 200 0 0 255 
-1.831198 -20.52157 158.7601 188 0 0 255 
-1.876627 -12.0606 178.1272 178 255 78 255 
-1.838471 -13.08628 175.1835 255 92 0 255 
-1.951454 -9.747894 187.5119 0 0 140 255 
-1.871329 -11.93843 178.2507 170 255 86 255 
-1.813521 -29.92219 153.0932 208 0 0 255 
-1.946699 -8.271143 181.3099 0 0 216 255 
-1.80434 -18.34012 159.9678 200 0 0 255 
-1.801661 -28.72064 154.763 200 0 0 255 
-1.827993 -12.94049 176.2676 255 168 0 255 
-1.791798 -20.20374 158.8053 188 0 0 255 
-1.786495 -21.40542 158.7402 196 0 0 255 
-1.787605 -18.98048 159.0566 196 0 0 255 
-1.782146 -29.74165 153.4507 212 0 0 255 
-1.778405 -15.81696 166.4872 196 0 0 255 
-1.776031 -15.89963 166.2758 200 0 0 255 
-1.898609 -7.48014 179.9433 0 0 255 255 
-1.865322 -8.052967 179.2258 0 152 255 255 
-1.761343 -19.18054 158.9257 192 0 0 255 
-1.755009 -24.06559 158.1079 184 0 0 255 
-1.85935 -7.865025 179.4135 0 108 255 255 
-1.874122 -7.608691 180.3347 0 0 236 255 
-1.738707 -30.62887 151.8378 216 0 0 255 
-1.73425 -26.7128 156.6736 180 0 0 255 
-1.875584 -9.108514 182.3093 0 0 204 255 
-1.778583 -12.58213 177.4095 238 255 18 255 
-1.868405 -9.469819 182.9435 0 0 176 255 
-1.723421 -18.13295 160.3083 196 0 0 255 
-1.71652 -16.26293 165.2785 200 0 0 255 
-1.6988 -26.248 157.0473 188 0 0 255 
-1.828371 -9.694004 186.686 0 0 132 255 
-1.686447 -27.78449 155.8421 192 0 0 255 
-1.822175 -7.777861 180.6454 0 0 232 255 
-1.685278 -15.34197 167.6505 180 0 0 255 
-1.769316 -8.997182 179.1378 0 244 255 255 
-1.721241 -12.65264 177.2815 250 255 6 255 
-1.774433 -8.265477 179.1819 0 176 255 255 
-1.67235 -23.23301 158.4696 188 0 0 255 
-1.67429 -15.95894 166.0967 204 0 0 255 
-1.670866 -30.43183 152.4109 208 0 0 255 
-1.811003 -9.606025 184.7623 0 0 148 255 
-1.796854 -9.746754 187.4172 0 0 156 255 
-1.675004 -13.09662 174.6181 255 52 0 255 
-1.655721 -30.23328 152.8234 208 0 0 255 
-1.64809 -29.98029 153.2855 212 0 0 255 
-1.673293 -12.89737 176.5123 255 184 0 255 
-1.767499 -7.469327 179.9698 0 4 255 255 
-1.636138 -17.71338 161.1656 196 0 0 255 
-1.625115 -14.99474 168.5004 176 0 0 255 
-1.761869 -9.616488 185.2976 0 0 132 255 
-1.68358 -11.73155 178.4802 142 255 114 255 
-1.639936 -13.04605 175.7326 255 144 0 255 
-1.61169 -25.28852 157.6938 184 0 0 255 
-1.598419 -14.36324 170.01 160 0 0 255 
-1.598213 -18.45227 159.741 196 0 0 255 
-1.593088 -29.8424 153.595 212 0 0 255 
-1.637896 -12.37152 177.7942 214 255 42 255 
-1.728429 -8.603848 181.8091 0 0 212 255 
-1.715321 -7.476089 180.0777 0 0 255 255 
-1.591206 -13.0564 173.2857 240 0 0 255 
-1.576446 -16.35656 164.9784 200 0 0 255 
-1.575866 -17.3208 162.2334 200 0 0 255 
-1.561852 -30.17883 153.0873 208 0 0 255 
-1.559278 -17.79291 160.9282 192 0 0 255 
-1.560001 -16.04426 165.847 208 0 0 255 
-1.554318 -22.70873 158.7176 188 0 0 255 
-1.562973 -13.2569 172.7863 216 0 0 255 
-1.549688 -14.87749 168.789 180 0 0 255 
-1.688054 -7.970758 180.9821 0 0 212 255 
-1.546873 -18.09592 160.3151 192 0 0 255 
-1.632284 -8.846506 179.1954 0 216 255 255 
-1.533037 -29.10077 154.6533 192 0 0 255 
-1.549806 -13.09424 174.8981 255 80 0 255 
-1.519013 -25.88301 157.4491 184 0 0 255 
-1.517667 -26.12006 157.3073 188 0 0 255 
-1.61347 -8.298889 179.2337 0 172 255 255 
-1.509151 -18.82678 159.2564 192 0 0 255 
-1.503328 -20.44594 159.0563 188 0 0 255 
-1.524459 -12.75697 177.0734 255 232 0 255 
-1.480003 -24.43126 158.219 180 0 0 255 
-1.470466 -28.58714 155.3047 192 0 0 255 
-1.468418 -26.3923 157.1781 188 0 0 255 
-1.597409 -9.638038 186.0187 0 0 140 255 
-1.519767 -11.95834 178.3242 158 255 98 255 
-1.602962 -9.521064 183.6711 0 0 148 255 
-1.441838 -30.73187 152.2436 212 0 0 255 
-1.436555 -30.84694 151.9973 216 0 0 255 
-1.42662 -21.20693 159.0787 192 0 0 255 
-1.421379 -25.60347 157.7059 188 0 0 255 
-1.420096 -30.09544 153.4617 208 0 0 255 
-1.409067 -19.85844 159.1457 180 0 0 255 
-1.441306 -12.97937 176.1843 255 164 0 255 
-1.431465 -13.0764 175.4321 255 128 0 255 
-1.404491 -17.04107 162.9639 204 0 0 255 
-1.534521 -9.672786 186.4902 0 0 132 255 
-1.547435 -9.477839 183.1681 0 0 160 255 
-1.422973 -12.91479 176.5369 255 192 0 255 
-1.474146 -9.655107 179.1648 2 255 254 255 
-1.529943 -9.205121 182.5778 0 0 188 255 
-1.384724 -15.62576 166.8817 192 0 0 255 
-1.382616 -31.13514 151.3639 208 0 0 255 
-1.377919 -18.67813 159.4342 196 0 0 255 
-1.368768 -23.82205 158.5621 188 0 0 255 
-1.367272 -24.11737 158.4521 184 0 0 255 
-1.372054 -16.05385 165.7727 216 0 0 255 
-1.367066 -15.79513 166.4526 204 0 0 255 
-1.361675 -15.93858 166.0785 212 0 0 255 
-1.351353 -27.86815 156.1253 184 0 0 255 
-1.490913 -7.894104 180.9442 0 0 220 255 
-1.348741 -22.57107 158.9272 180 0 0 255 
-1.484178 -7.581913 180.3852 0 0 128 255 
-1.345114 -30.32507 153.1859 204 0 0 255 
-1.3447 -19.38031 159.2032 184 0 0 255 
-1.338741 -22.82104 158.8798 180 0 0 255 
-1.337539 -18.41302 159.7669 192 0 0 255 
-1.326557 -24.65466 158.2646 184 0 0 255 
-1.326112 -29.56566 154.3469 204 0 0 255 
-1.378875 -12.12589 178.1894 174 255 82 255 
-1.317475 -29.74353 154.1277 208 0 0 255 
-1.315996 -25.24258 157.9983 188 0 0 255 
-1.313397 -13.03116 173.5305 255 0 0 255 
-1.292701 -13.87951 171.1884 172 0 0 255 
-1.299302 -13.11049 173.187 236 0 0 255 
-1.281762 -17.53087 161.4301 192 0 0 255 
-1.268409 -28.46497 155.6558 192 0 0 255 
-1.268741 -25.70009 157.7943 188 0 0 255 
-1.281872 -13.02812 173.4215 255 0 0 255 
-1.258539 -16.79621 163.6014 204 0 0 255 
-1.257486 -26.88384 157.0426 196 0 0 255 
-1.249923 -27.33264 156.6959 192 0 0 255 
-1.242939 -22.24817 159.0898 184 0 0 255 
-1.375588 -7.521084 180.365 0 0 244 255 
-1.23668 -17.35984 161.8854 196 0 0 255 
-1.364708 -7.46542 180.0452 0 8 255 255 
-1.233432 -21.53023 159.2086 188 0 0 255 
-1.234816 -18.16579 160.1322 196 0 0 255 
-1.372241 -9.585248 184.8969 0 0 136 255 
-1.223559 -21.17786 159.2527 188 0 0 255 
-1.219971 -28.10135 156.0532 188 0 0 255 
-1.220569 -15.4555 167.2893 188 0 0 255 
-1.218984 -30.97077 152.165 216 0 0 255 
-1.262769 -12.61919 177.5008 234 255 22 255 
-1.209353 -30.15587 153.6803 212 0 0 255 
-1.266517 -11.86338 178.4778 142 255 114 255 
-1.204363 -16.39467 164.7469 208 0 0 255 
-1.199704 -30.3853 153.3109 204 0 0 255 
-1.196447 -31.09619 151.9052 212 0 0 255 
-1.328072 -8.152382 181.3641 0 0 220 255 
-1.186764 -18.90077 159.344 184 0 0 255 
-1.284493 -8.111636 179.3623 0 136 255 255 
-1.192382 -13.06548 174.0814 255 44 0 255 
-1.163804 -18.75578 159.4331 188 0 0 255 
-1.156214 -21.88559 159.2242 188 0 0 255 
-1.156677 -16.47956 164.4717 204 0 0 255 
-1.150551 -15.71188 166.6123 200 0 0 255 
-1.290842 -9.52998 183.9501 0 0 140 255 
-1.281198 -7.917369 181.0545 0 0 228 255 
-1.275469 -8.945688 182.3481 0 0 128 255 
-1.13941 -16.25821 165.1117 208 0 0 255 
-1.1365 -17.20703 162.3028 204 0 0 255 
-1.225237 -8.356631 179.3555 0 160 255 255 
-1.12847 -29.78031 154.3329 216 0 0 255 
-1.168049 -12.76241 177.1875 255 244 0 255 
-1.135664 -13.06796 174.8593 255 72 0 255 
-1.113871 -19.10554 159.3895 188 0 0 255 
-1.244796 -9.642905 186.1695 0 0 128 255 
-1.25803 -9.449443 183.14 0 0 164 255 
-1.239989 -8.355132 181.6556 0 0 212 255 
-1.217986 -7.59901 179.8908 0 36 255 255 
-1.165258 -11.1342 178.9241 82 255 174 255 
-1.230024 -9.611698 185.4957 0 0 140 255 
-1.080495 -23.96072 158.7621 184 0 0 255 
-1.077823 -23.16256 159.0171 180 0 0 255 
-1.092705 -13.03524 173.4433 255 12 0 255 
-1.201674 -7.471325 180.0719 0 8 255 255 
-1.06961 -14.51738 169.62 172 0 0 255 
-1.200103 -7.480936 180.3411 0 0 248 255 
-1.06581 -18.34399 159.8502 192 0 0 255 
-1.106885 -12.7625 177.2 255 244 0 255 
-1.057488 -28.68434 155.6718 200 0 0 255 
-1.14071 -9.704659 179.2417 0 252 255 255 
-1.049411 -30.95023 152.5289 212 0 0 255 
-1.045215 -18.92684 159.4431 188 0 0 255 
-1.044848 -29.59104 154.6686 208 0 0 255 
-1.148867 -7.902823 179.5503 0 104 255 255 
-1.178752 -9.564684 184.4599 0 0 152 255 
-1.024682 -30.31779 153.6986 216 0 0 255 
-1.017277 -18.7883 159.4924 188 0 0 255 
-1.018414 -16.61413 164.0061 196 0 0 255 
-1.116994 -8.123771 179.404 0 140 255 255 
-1.011105 -27.915 156.4471 200 0 0 255 
-1.018803 -13.17276 173.0745 240 0 0 255 
-1.00341 -27.16712 157.0631 192 0 0 255 
-1.002942 -13.86866 171.2079 168 0 0 255 
-1.107557 -7.759558 179.7047 0 80 255 255 
-0.99698 -17.97874 160.3902 188 0 0 255 
-0.98875 -24.36105 158.6801 180 0 0 255 
-1.128397 -9.567809 184.8172 0 0 136 255 
-0.980553 -25.25968 158.2742 184 0 0 255 
-0.97338 -31.24988 152.0053 212 0 0 255 
-1.035408 -11.7884 178.5939 130 255 126 255 
-0.960515 -22.76938 159.2108 176 0 0 255 
-0.9630359 -16.03225 165.7024 212 0 0 255 
-1.098976 -8.620293 182.0173 0 0 192 255 
-0.954439 -14.79379 168.9366 180 0 0 255 
-0.950619 -13.56711 172.0069 192 0 0 255 
-0.942139 -22.32479 159.3239 180 0 0 255 
-1.004226 -11.33851 178.8727 94 255 162 255 
-0.9402819 -13.01985 173.7558 255 24 0 255 
-1.052757 -7.45484 180.3294 0 0 252 255 
-0.9640803 -12.6002 177.6239 230 255 26 255 
-0.9830447 -11.51265 178.7861 110 255 146 255 
-1.058644 -9.427388 183.1335 0 0 164 255 
-1.045071 -8.486024 181.874 0 0 200 255 
-0.8967929 -21.66738 159.4615 180 0 0 255 
-1.05075 -9.488237 183.561 0 0 148 255 
-1.032351 -7.854421 181.0501 0 0 232 255 
-1.02895 -8.379859 181.7482 0 0 200 255 
-0.879029 -15.27482 167.6995 188 0 0 255 
-0.872907 -19.16369 159.5839 192 0 0 255 
-0.9665554 -8.64905 179.4061 0 180 255 255 
-0.8600291 -20.42726 159.5815 176 0 0 255 
-0.8550727 -20.02486 159.5992 184 0 0 255 
-0.8531817 -16.84871 163.195 188 0 0 255 
-0.8510109 -18.36404 159.8409 196 0 0 255 
-0.86568 -13.03467 174.1476 255 40 0 255 
-0.8435867 -14.56737 169.4844 172 0 0 255 
-0.9405832 -8.370328 179.4389 0 152 255 255 
-0.8957866 -11.98746 178.4506 154 255 102 255 
-0.8280322 -25.90001 158.0515 184 0 0 255 
-0.9690071 -8.862017 182.3511 0 0 188 255 
-0.817427 -24.58644 158.7229 176 0 0 255 
-0.9086956 -9.180432 179.3666 0 216 255 255 
-0.8130977 -31.46039 151.8097 212 0 0 255 
-0.8016912 -17.87589 160.532 188 0 0 255 
-0.8005144 -16.41109 164.5239 200 0 0 255 
-0.8792003 -10.04926 179.2461 14 255 242 255 
-0.7918482 -18.65647 159.6667 196 0 0 255 
-0.9277224 -9.685862 186.8203 0 0 156 255 
-0.786956 -29.36926 155.2096 196 0 0 255 
-0.7833399 -19.57361 159.6593 188 0 0 255 
-0.7974169 -13.05906 175.0419 255 92 0 255 
-0.8277012 -12.39831 177.9921 198 255 58 255 
-0.7706512 -28.88512 155.7504 196 0 0 255 
-0.7645529 -27.71038 156.8433 192 0 0 255 
-0.911455 -9.13787 182.7197 0 0 180 255 
-0.8965402 -7.439184 180.3409 0 0 248 255 
-0.7579279 -15.36913 167.4194 184 0 0 255 
-0.7479444 -25.48931 158.3473 184 0 0 255 
