ply
format ascii 1.0
comment VCGLIB generated
element vertex 1130
property float x
property float y
property float z
property uchar red
property uchar green
property uchar blue
property uchar alpha
element face 0
property list uchar int vertex_indices
end_header
-3.087927 -7.867692 180.2274 0 0 236 255 
-3.074005 -25.32323 156.9689 204 0 0 255 
-3.066775 -18.12849 162.7364 200 0 0 255 
-3.075255 -7.799727 179.4675 0 56 255 255 
-3.062713 -20.39192 158.4817 196 0 0 255 
-3.061933 -16.68545 166.3631 200 0 0 255 
-3.057212 -17.90319 163.3063 204 0 0 255 
-3.06978 -8.95187 181.6179 0 0 204 255 
-3.055901 -16.05627 167.9034 180 0 0 255 
-3.054065 -26.46677 156.2755 204 0 0 255 
-3.063277 -9.578359 182.6334 0 0 196 255 
-3.049724 -13.33279 176.2771 255 164 0 255 
-3.037737 -28.06583 154.8881 200 0 0 255 
-3.025978 -29.60369 152.7444 200 0 0 255 
-3.02254 -20.59007 158.354 200 0 0 255 
-3.012178 -13.60727 174.9079 255 48 0 255 
-3.008583 -23.30432 157.8533 196 0 0 255 
-3.003026 -20.67049 158.3273 204 0 0 255 
-2.997586 -26.08518 156.6178 208 0 0 255 
-3.004134 -7.959668 179.3242 0 100 255 255 
-2.992434 -19.88848 159.0848 192 0 0 255 
-2.984852 -12.25031 178.2915 166 255 90 255 
-2.976473 -19.46689 159.7287 200 0 0 255 
-2.976698 -12.59886 177.8938 202 255 54 255 
-2.971992 -13.37052 176.1538 255 156 0 255 
-2.964926 -24.74088 157.3869 200 0 0 255 
-2.964095 -20.41561 158.4902 200 0 0 255 
-2.965588 -13.11589 176.9182 255 212 0 255 
-2.959343 -16.8641 165.8746 192 0 0 255 
-2.953876 -23.80899 157.7598 192 0 0 255 
-2.952091 -26.93693 156.0598 204 0 0 255 
-2.950013 -27.28425 155.7721 200 0 0 255 
-2.946374 -22.40154 158.1416 196 0 0 255 
-2.955976 -8.498859 181.1223 0 0 128 255 
-2.940858 -13.53272 175.4355 255 100 0 255 
-2.946431 -9.587146 182.8734 0 0 192 255 
-2.940835 -9.743354 179.0317 0 236 255 255 
-2.930652 -13.23132 176.611 255 184 0 255 
-2.937297 -7.826596 180.239 0 0 240 255 
-2.919472 -15.93837 168.1509 176 0 0 255 
-2.918176 -25.80623 156.8959 208 0 0 255 
-2.930057 -9.539358 182.5665 0 0 204 255 
-2.906778 -20.23585 158.6596 192 0 0 255 
-2.903866 -21.38819 158.3308 200 0 0 255 
-2.90412 -9.090928 179.0215 0 200 255 255 
-2.892476 -18.19103 162.4539 200 0 0 255 
-2.889098 -29.57775 153.0949 204 0 0 255 
-2.885216 -13.62663 173.9511 248 0 0 255 
-2.882711 -13.75765 173.1786 228 0 0 255 
-2.888515 -10.28902 179.0379 26 255 230 255 
-2.892662 -8.746275 181.446 0 0 208 255 
-2.876527 -15.8088 168.4528 176 0 0 255 
-2.87729 -13.63551 173.6556 240 0 0 255 
-2.872928 -18.69855 161.1721 200 0 0 255 
-2.870957 -20.89456 158.402 204 0 0 255 
-2.863015 -14.82603 170.731 152 0 0 255 
-2.859452 -17.19067 165.0076 196 0 0 255 
-2.869428 -9.072673 181.8582 0 0 204 255 
-2.861739 -11.9619 178.5636 138 255 118 255 
-2.840886 -20.75993 158.4403 204 0 0 255 
-2.834119 -27.06646 156.1194 204 0 0 255 
-2.844633 -8.322112 180.9928 0 0 212 255 
-2.823527 -29.49015 153.3814 208 0 0 255 
-2.834015 -9.799204 187.7393 0 0 164 255 
-2.809766 -25.02024 157.4443 196 0 0 255 
-2.805879 -19.14926 160.2103 208 0 0 255 
-2.808486 -11.66834 178.7577 106 255 150 255 
-2.796069 -22.7527 158.2333 196 0 0 255 
-2.791924 -23.21027 158.1245 200 0 0 255 
-2.786563 -20.08213 158.8262 192 0 0 255 
-2.784508 -30.28078 151.9469 208 0 0 255 
-2.784919 -12.85849 177.5307 242 255 14 255 
-2.776091 -28.49061 154.8407 200 0 0 255 
-2.786012 -7.659386 179.9521 0 4 255 255 
-2.765727 -12.45505 178.121 194 255 62 255 
-2.753807 -28.63404 154.7111 204 0 0 255 
-2.751572 -24.00951 157.9214 188 0 0 255 
-2.751145 -13.59485 174.4512 255 24 0 255 
-2.746624 -15.39352 169.4101 176 0 0 255 
-2.7416 -16.0519 167.8308 184 0 0 255 
-2.738584 -17.7295 163.5657 200 0 0 255 
-2.737438 -25.99651 157.0069 204 0 0 255 
-2.735706 -26.34802 156.7833 204 0 0 255 
-2.743529 -8.812906 179.0583 0 196 255 255 
-2.729775 -29.44945 153.6367 208 0 0 255 
-2.733781 -12.65499 177.8745 214 255 42 255 
-2.722196 -20.18853 158.7378 192 0 0 255 
-2.726167 -10.56841 179.0561 42 255 214 255 
-2.72851 -7.757073 180.22 0 0 244 255 
-2.721076 -9.302208 182.234 0 0 212 255 
-2.70483 -14.94164 170.4477 156 0 0 255 
-2.701398 -23.51427 158.1361 192 0 0 255 
-2.711552 -8.053346 180.6753 0 0 224 255 
-2.693208 -28.42382 155.0467 200 0 0 255 
-2.687293 -18.04355 162.7047 204 0 0 255 
-2.684852 -16.38182 166.9986 196 0 0 255 
-2.672936 -30.44666 151.8551 212 0 0 255 
-2.664429 -21.35701 158.5877 204 0 0 255 
-2.658596 -21.8468 158.5421 196 0 0 255 
-2.655905 -29.80672 153.1959 204 0 0 255 
-2.652018 -13.55731 175.0406 255 52 0 255 
-2.652109 -13.39314 176.0857 255 148 0 255 
-2.658067 -7.701142 180.1404 0 0 244 255 
-2.644861 -22.50253 158.4481 192 0 0 255 
-2.634875 -24.84845 157.7244 192 0 0 255 
-2.646899 -9.574039 183.0917 0 0 168 255 
-2.629415 -29.25503 154.1185 212 0 0 255 
-2.626339 -19.92314 159.0085 192 0 0 255 
-2.619757 -19.78684 159.1723 196 0 0 255 
-2.618901 -14.52904 171.3914 156 0 0 255 
-2.60352 -17.24761 164.7454 196 0 0 255 
-2.598066 -20.42953 158.7007 196 0 0 255 
-2.594153 -21.67049 158.6302 200 0 0 255 
-2.603323 -8.917855 181.7741 0 0 216 255 
-2.599745 -9.460791 182.5387 0 0 200 255 
-2.577425 -27.62679 155.9926 192 0 0 255 
-2.576665 -13.589 173.7283 228 0 0 255 
-2.57441 -23.10691 158.3855 196 0 0 255 
-2.580666 -11.05489 179.0158 82 255 174 255 
-2.583752 -9.243627 182.2057 0 0 208 255 
-2.582508 -9.654988 184.9158 0 0 148 255 
-2.578498 -8.5521 181.4089 0 0 212 255 
-2.561926 -18.38965 161.7032 204 0 0 255 
-2.557858 -17.48885 164.0969 200 0 0 255 
-2.570137 -9.770713 187.4964 0 0 156 255 
-2.550155 -17.94374 162.8847 204 0 0 255 
-2.546802 -26.17473 157.1282 200 0 0 255 
-2.540879 -20.68358 158.7468 196 0 0 255 
-2.540902 -14.30069 171.9201 172 0 0 255 
-2.538365 -30.59061 151.8682 208 0 0 255 
-2.530773 -27.93283 155.7767 192 0 0 255 
-2.525642 -15.08496 170.0944 164 0 0 255 
-2.537266 -7.920715 180.5593 0 0 224 255 
-2.515153 -28.84046 154.8469 200 0 0 255 
-2.515144 -13.9118 172.8272 200 0 0 255 
-2.510581 -29.23951 154.349 200 0 0 255 
-2.506998 -25.97866 157.2941 196 0 0 255 
-2.504494 -18.30122 161.8911 204 0 0 255 
-2.502995 -20.25481 158.8264 192 0 0 255 
-2.501597 -14.09054 172.4081 172 0 0 255 
-2.492311 -29.47695 154.0473 208 0 0 255 
-2.497747 -10.2472 179.1308 30 255 226 255 
-2.496882 -9.826235 179.149 2 255 254 255 
-2.48796 -13.6245 173.4732 216 0 0 255 
-2.481313 -28.22392 155.5638 196 0 0 255 
-2.488265 -8.327367 179.1669 0 176 255 255 
-2.476939 -13.36269 176.2237 255 140 0 255 
-2.471071 -24.70954 157.9658 192 0 0 255 
-2.466439 -24.01153 158.2329 192 0 0 255 
-2.462042 -16.69556 166.1242 200 0 0 255 
-2.46961 -8.139271 179.29 0 132 255 255 
-2.469929 -9.603551 183.8429 0 0 140 255 
-2.455586 -18.65964 161.0001 200 0 0 255 
-2.450991 -21.1768 158.8148 204 0 0 255 
-2.447695 -13.64852 173.4271 216 0 0 255 
-2.441675 -21.5992 158.792 204 0 0 255 
-2.452417 -8.211926 181.0168 0 0 216 255 
-2.430905 -15.62222 168.8057 172 0 0 255 
-2.419504 -17.61114 163.7008 204 0 0 255 
-2.427767 -7.717268 180.2753 0 0 244 255 
-2.410963 -14.51946 171.3979 152 0 0 255 
-2.402881 -13.51339 175.3422 255 60 0 255 
-2.3976 -18.07653 162.4181 200 0 0 255 
-2.399467 -13.05901 177.2065 255 216 0 255 
-2.393209 -27.52829 156.3195 196 0 0 255 
-2.390299 -26.30518 157.231 204 0 0 255 
-2.385376 -28.4001 155.5189 196 0 0 255 
-2.384347 -15.88364 168.1566 180 0 0 255 
-2.395284 -9.392357 182.4942 0 0 196 255 
-2.3668 -17.31505 164.4601 200 0 0 255 
-2.365406 -17.82704 163.0838 204 0 0 255 
-2.364428 -30.65069 152.1772 208 0 0 255 
-2.361143 -15.33473 169.4847 176 0 0 255 
-2.358015 -13.42364 175.938 255 116 0 255 
-2.348923 -17.16222 164.8568 200 0 0 255 
-2.346515 -26.83839 156.9195 196 0 0 255 
-2.359372 -9.575062 183.4707 0 0 152 255 
-2.341336 -15.18723 169.8302 172 0 0 255 
-2.350684 -7.603822 179.8551 0 16 255 255 
-2.320226 -22.69044 158.744 192 0 0 255 
-2.314262 -25.23139 157.9054 196 0 0 255 
-2.323141 -7.634729 180.1571 0 0 240 255 
-2.301857 -30.47157 152.7135 208 0 0 255 
-2.311952 -7.851579 180.5439 0 0 224 255 
-2.297441 -13.56894 173.6106 220 0 0 255 
-2.292097 -29.68059 154.103 212 0 0 255 
-2.29203 -7.82374 179.6092 0 60 255 255 
-2.27652 -13.25354 176.6708 255 164 0 255 
-2.268288 -19.76374 159.2215 188 0 0 255 
-2.265997 -23.31052 158.6521 192 0 0 255 
-2.274688 -9.620132 184.5908 0 0 148 255 
-2.250102 -28.51534 155.584 196 0 0 255 
-2.247147 -28.03523 156.055 192 0 0 255 
-2.241248 -21.07924 159.022 196 0 0 255 
-2.241415 -19.14719 160.0265 204 0 0 255 
-2.236771 -20.70959 159.0401 188 0 0 255 
-2.233247 -13.47197 175.6265 255 92 0 255 
-2.226354 -18.29207 161.7206 200 0 0 255 
-2.225156 -16.15571 167.4374 188 0 0 255 
-2.221933 -21.65708 159.0012 200 0 0 255 
-2.235079 -9.475558 182.7323 0 0 196 255 
-2.221781 -11.99851 178.6696 154 255 102 255 
-2.215999 -12.70128 177.9291 234 255 22 255 
-2.210052 -29.92982 153.8676 212 0 0 255 
-2.207668 -30.11669 153.5683 208 0 0 255 
-2.213232 -8.615915 179.2248 0 192 255 255 
-2.200673 -19.46589 159.5588 196 0 0 255 
-2.19923 -30.81919 152.1908 212 0 0 255 
-2.19777 -22.24673 158.9463 192 0 0 255 
-2.195888 -29.27599 154.8045 204 0 0 255 
-2.189708 -15.53331 168.9785 176 0 0 255 
-2.186692 -28.27096 155.9095 200 0 0 255 
-2.1975 -7.658125 179.8051 0 36 255 255 
-2.1814 -13.64882 173.4355 212 0 0 255 
-2.175401 -20.23332 159.1058 192 0 0 255 
-2.170884 -19.973 159.1563 188 0 0 255 
-2.182476 -7.740174 180.4115 0 0 228 255 
-2.165954 -14.87063 170.5544 156 0 0 255 
-2.174257 -8.021797 180.8611 0 0 228 255 
-2.159451 -21.35285 159.0857 196 0 0 255 
-2.146443 -29.6768 154.352 220 0 0 255 
-2.142877 -18.62222 160.9175 200 0 0 255 
-2.137554 -17.94168 162.6184 208 0 0 255 
-2.130886 -16.76824 165.8147 196 0 0 255 
-2.116252 -19.78271 159.2732 188 0 0 255 
-2.112305 -26.67736 157.301 200 0 0 255 
-2.111026 -26.32228 157.5323 200 0 0 255 
-2.11222 -9.264879 182.4167 0 0 204 255 
-2.10061 -8.875629 179.2686 0 212 255 255 
-2.079743 -28.54978 155.7708 200 0 0 255 
-2.074879 -19.9756 159.2196 188 0 0 255 
-2.078536 -8.365707 179.2677 0 168 255 255 
-2.06826 -14.16202 172.2337 176 0 0 255 
-2.066091 -17.27136 164.4341 196 0 0 255 
-2.07989 -9.537664 183.2204 0 0 156 255 
-2.063282 -15.81604 168.256 180 0 0 255 
-2.074455 -9.439253 182.7119 0 0 192 255 
-2.072731 -9.690176 186.4462 0 0 132 255 
-2.055797 -30.9688 152.1833 212 0 0 255 
-2.052855 -30.1562 153.7874 212 0 0 255 
-2.050415 -19.62224 159.4002 192 0 0 255 
-2.051342 -13.34041 176.3699 255 136 0 255 
-2.05554 -9.6662 185.9511 0 0 132 255 
-2.037939 -18.05576 162.2256 200 0 0 255 
-2.03665 -19.60797 159.4105 192 0 0 255 
-2.042949 -10.53592 179.2052 54 255 202 255 
-2.030275 -24.44595 158.5301 188 0 0 255 
-2.028947 -27.70413 156.6124 196 0 0 255 
-2.028773 -18.97432 160.2494 204 0 0 255 
-2.023058 -25.4321 158.1147 192 0 0 255 
-2.022032 -13.16501 177.0205 255 192 0 255 
-2.01838 -7.974031 179.5245 0 108 255 255 
-2.001504 -11.77344 178.8626 126 255 130 255 
-1.983178 -14.50761 171.4016 152 0 0 255 
-1.982837 -17.61812 163.4309 204 0 0 255 
-1.974005 -30.43595 153.4576 208 0 0 255 
-1.973535 -23.75978 158.8166 192 0 0 255 
-1.982303 -7.567468 180.1376 0 0 252 255 
-1.961705 -23.0717 159.011 188 0 0 255 
-1.961406 -16.66611 166.0302 200 0 0 255 
-1.968491 -7.810709 179.6911 0 72 255 255 
-1.955814 -20.36923 159.3079 188 0 0 255 
-1.954584 -18.16422 161.8718 200 0 0 255 
-1.953832 -20.99783 159.2943 188 0 0 255 
-1.949473 -12.30282 178.4687 178 255 78 255 
-1.943269 -13.46003 175.649 255 92 0 255 
-1.952089 -9.737343 187.5078 0 0 140 255 
-1.942464 -12.17657 178.586 170 255 86 255 
-1.934197 -30.38814 153.6141 208 0 0 255 
-1.94361 -8.317207 181.361 0 0 216 255 
-1.923829 -18.80705 160.4965 200 0 0 255 
-1.922585 -29.18946 155.289 200 0 0 255 
-1.924757 -13.26843 176.6957 255 168 0 255 
-1.91412 -20.6801 159.3403 188 0 0 255 
-1.909239 -21.87642 159.2694 196 0 0 255 
-1.907228 -19.45077 159.588 196 0 0 255 
-1.90158 -30.20534 153.9701 212 0 0 255 
-1.897495 -16.28592 167.0186 196 0 0 255 
-1.895621 -16.36687 166.8061 200 0 0 255 
-1.905982 -7.544146 180.0193 0 0 255 255 
-1.89766 -8.191141 179.383 0 152 255 255 
-1.882308 -19.65273 159.459 192 0 0 255 
-1.879182 -24.54258 158.6426 184 0 0 255 
-1.885516 -7.982065 179.5487 0 108 255 255 
-1.875796 -7.662251 180.3985 0 0 236 255 
-1.858594 -31.09287 152.3539 216 0 0 255 
-1.856412 -27.19227 157.2109 180 0 0 255 
-1.869576 -9.148425 182.352 0 0 204 255 
-1.859328 -12.85121 177.7861 238 255 18 255 
-1.859058 -9.494757 182.9689 0 0 176 255 
-1.843012 -18.60343 160.8398 196 0 0 255 
-1.837117 -16.73137 165.8084 200 0 0 255 
-1.819097 -26.72285 157.5806 188 0 0 255 
-1.827761 -9.689727 186.6827 0 0 132 255 
-1.811076 -28.25805 156.3751 192 0 0 255 
-1.82182 -7.831176 180.7066 0 0 232 255 
-1.807294 -15.82201 168.1884 180 0 0 255 
-1.811675 -9.176014 179.3506 0 244 255 255 
-1.8041 -12.92807 177.6633 250 255 6 255 
-1.808838 -8.415731 179.3534 0 176 255 255 
-1.796221 -23.70672 159.0032 188 0 0 255 
-1.793797 -16.42398 166.6259 204 0 0 255 
-1.790847 -30.89897 152.9303 208 0 0 255 
-1.804504 -9.599424 184.749 0 0 148 255 
-1.798045 -9.727601 187.4073 0 0 156 255 
-1.78212 -13.49192 175.1028 255 52 0 255 
-1.776724 -30.70133 153.3441 208 0 0 255 
-1.768218 -30.4458 153.806 212 0 0 255 
-1.767132 -13.21394 176.9321 255 184 0 255 
-1.773403 -7.533608 180.0484 0 4 255 255 
-1.757795 -18.18412 161.697 196 0 0 255 
-1.74815 -15.47943 169.0386 176 0 0 255 
-1.759697 -9.620352 185.2935 0 0 132 255 
-1.748972 -11.95431 178.8018 142 255 114 255 
-1.738048 -13.38533 176.1727 255 144 0 255 
-1.735165 -25.76565 158.2303 184 0 0 255 
-1.721491 -14.85508 170.5565 160 0 0 255 
-1.718952 -18.92156 160.2712 196 0 0 255 
-1.712809 -30.30718 154.1147 212 0 0 255 
-1.715426 -12.62614 178.1582 214 255 42 255 
-1.724277 -8.647407 181.8559 0 0 212 255 
-1.717944 -7.538042 180.1543 0 0 255 255 
-1.702266 -13.49638 173.8009 240 0 0 255 
-1.697643 -16.82303 165.5065 200 0 0 255 
-1.695875 -17.78893 162.762 200 0 0 255 
-1.682865 -30.64688 153.6088 208 0 0 255 
-1.681232 -18.26644 161.4613 192 0 0 255 
-1.679259 -16.50539 166.3731 208 0 0 255 
-1.677467 -23.1816 159.252 188 0 0 255 
-1.674699 -13.71412 173.3104 216 0 0 255 
-1.671605 -15.35971 169.3259 180 0 0 255 
-1.684447 -8.011353 181.0328 0 0 212 255 
-1.666998 -18.56809 160.848 192 0 0 255 
-1.671679 -9.011079 179.3944 0 216 255 255 
-1.655176 -29.57475 155.1833 192 0 0 255 
-1.655264 -13.47202 175.3691 255 80 0 255 
-1.642267 -26.36047 157.9847 184 0 0 255 
-1.63974 -26.59684 157.8414 188 0 0 255 
-1.646493 -8.44427 179.4047 0 172 255 255 
-1.629969 -19.29919 159.7902 192 0 0 255 
-1.625913 -20.92327 159.5905 188 0 0 255 
-1.609927 -13.04438 177.4709 255 232 0 255 
-1.603866 -24.91142 158.7562 180 0 0 255 
-1.593968 -29.06057 155.8349 192 0 0 255 
-1.589618 -26.8687 157.7123 188 0 0 255 
-1.600669 -9.646741 186.0235 0 0 140 255 
-1.588039 -12.18581 178.6585 158 255 98 255 
-1.59521 -9.534389 183.6762 0 0 148 255 
-1.561425 -31.19819 152.7608 212 0 0 255 
-1.555986 -31.31203 152.5138 216 0 0 255 
-1.55052 -21.68175 159.6096 192 0 0 255 
-1.54453 -26.0799 158.2403 188 0 0 255 
-1.541081 -30.56162 153.9823 208 0 0 255 
-1.532974 -20.33739 159.6826 180 0 0 255 
-1.534883 -13.30584 176.6158 255 164 0 255 
-1.531027 -13.4245 175.8804 255 128 0 255 
-1.525414 -17.50686 163.491 204 0 0 255 
-1.53478 -9.668355 186.4863 0 0 132 255 
-1.53149 -9.493032 183.1837 0 0 160 255 
-1.515296 -13.226 176.9562 255 192 0 255 
-1.518714 -9.83038 179.3933 2 255 254 255 
-1.521736 -9.235698 182.6129 0 0 188 255 
-1.504492 -16.09697 167.4157 192 0 0 255 
-1.502717 -31.60534 151.8844 208 0 0 255 
-1.498687 -19.14831 159.9669 196 0 0 255 
-1.491714 -24.29721 159.0965 188 0 0 255 
-1.490579 -24.59499 158.9879 184 0 0 255 
-1.489649 -16.51181 166.2965 216 0 0 255 
-1.483926 -16.2591 166.9809 204 0 0 255 
-1.478997 -16.39824 166.604 212 0 0 255 
-1.477084 -28.34456 156.6612 184 0 0 255 
-1.488177 -7.939806 180.9996 0 0 220 255 
-1.472504 -23.0511 159.4664 180 0 0 255 
-1.484178 -7.581913 180.3852 0 0 128 255 
-1.467767 -30.79527 153.7085 204 0 0 255 
-1.466497 -19.8571 159.7396 184 0 0 255 
-1.462595 -23.29845 159.4179 180 0 0 255 
-1.459087 -18.88491 160.3002 192 0 0 255 
-1.450951 -25.13298 158.8004 184 0 0 255 
-1.448441 -30.03598 154.8709 204 0 0 255 
-1.448662 -12.35606 178.5331 174 255 82 255 
-1.439544 -30.21048 154.6474 208 0 0 255 
-1.438172 -25.71742 158.5325 188 0 0 255 
-1.423188 -13.46078 174.0389 255 0 0 255 
-1.411725 -14.36683 171.7293 172 0 0 255 
-1.40937 -13.55377 173.703 236 0 0 255 
-1.403842 -18.00194 161.9623 192 0 0 255 
-1.392403 -28.93898 156.1862 192 0 0 255 
-1.391191 -26.17477 158.3277 188 0 0 255 
-1.391397 -13.45737 173.9299 255 0 0 255 
-1.379418 -17.26279 164.1286 204 0 0 255 
-1.377303 -27.35567 157.5732 196 0 0 255 
-1.3727 -27.80708 157.2282 192 0 0 255 
-1.366815 -22.72474 159.6248 184 0 0 255 
-1.378846 -7.575678 180.4337 0 0 244 255 
-1.358558 -17.83083 162.4168 196 0 0 255 
-1.370782 -7.529319 180.1266 0 8 255 255 
-1.357131 -22.00577 159.7408 188 0 0 255 
-1.355125 -18.63489 160.664 196 0 0 255 
-1.367975 -9.584009 184.892 0 0 136 255 
-1.347356 -21.65551 159.7857 188 0 0 255 
-1.344676 -28.57759 156.587 188 0 0 255 
-1.341141 -15.92841 167.8245 188 0 0 255 
-1.338774 -31.43595 152.6812 216 0 0 255 
-1.340263 -12.87928 177.8784 234 255 22 255 
-1.330459 -30.62164 154.1999 212 0 0 255 
-1.33108 -12.07853 178.8041 142 255 114 255 
-1.323946 -16.85697 165.2721 208 0 0 255 
-1.322285 -30.85588 153.8334 204 0 0 255 
-1.31703 -31.56358 152.423 212 0 0 255 
-1.325351 -8.198023 181.4185 0 0 220 255 
-1.308842 -19.37636 159.8806 184 0 0 255 
-1.31551 -8.23731 179.5161 0 136 255 255 
-1.30053 -13.46462 174.572 255 44 0 255 
-1.285848 -19.2306 159.9692 188 0 0 255 
-1.280734 -22.36206 159.7574 188 0 0 255 
-1.276745 -16.94576 164.999 204 0 0 255 
-1.268802 -16.17798 167.1438 200 0 0 255 
-1.281881 -9.533781 183.9514 0 0 140 255 
-1.278243 -7.965717 181.1125 0 0 228 255 
-1.275469 -8.945688 182.3481 0 0 128 255 
-1.259141 -16.71992 165.6369 208 0 0 255 
-1.257621 -17.67249 162.83 204 0 0 255 
-1.259703 -8.492178 179.5224 0 160 255 255 
-1.249894 -30.24306 154.8498 216 0 0 255 
-1.249568 -13.04135 177.583 255 244 0 255 
-1.239725 -13.45118 175.3371 255 72 0 255 
-1.23579 -19.58028 159.9241 188 0 0 255 
-1.244996 -9.641554 186.1684 0 0 128 255 
-1.241368 -9.464742 183.1579 0 0 164 255 
-1.236149 -8.397823 181.7047 0 0 212 255 
-1.233111 -7.674853 179.9875 0 36 255 255 
-1.220569 -11.32783 179.2118 82 255 174 255 
-1.224479 -9.607044 185.4884 0 0 140 255 
-1.204283 -24.43743 159.2984 184 0 0 255 
-1.202127 -23.64035 159.5556 180 0 0 255 
-1.202634 -13.45712 173.9468 255 12 0 255 
-1.208192 -7.533675 180.1536 0 8 255 255 
-1.192132 -15.00351 170.1613 172 0 0 255 
-1.203303 -7.538931 180.4136 0 0 248 255 
-1.187583 -18.81584 160.3837 192 0 0 255 
-1.188627 -13.04164 177.5956 255 244 0 255 
-1.180094 -29.15333 156.198 200 0 0 255 
-1.184847 -9.874672 179.4691 0 252 255 255 
-1.168996 -31.4162 153.0459 212 0 0 255 
-1.167699 -19.40227 159.9784 188 0 0 255 
-1.166581 -30.05761 155.1894 208 0 0 255 
-1.175206 -8.012195 179.6845 0 104 255 255 
-1.167727 -9.555791 184.4478 0 0 152 255 
-1.145282 -30.77996 154.2146 216 0 0 255 
-1.139709 -19.26301 160.0273 188 0 0 255 
-1.139259 -17.08418 164.5357 196 0 0 255 
-1.148556 -8.249603 179.5592 0 140 255 255 
-1.133609 -28.38451 156.9743 200 0 0 255 
-1.129046 -13.61287 173.5884 240 0 0 255 
-1.124491 -27.6405 157.5937 192 0 0 255 
-1.123267 -14.3584 171.7505 168 0 0 255 
-1.132648 -7.858074 179.8256 0 80 255 255 
-1.11951 -18.45272 160.9252 188 0 0 255 
-1.113827 -24.83959 159.2184 180 0 0 255 
-1.1231 -9.569929 184.8135 0 0 136 255 
-1.104725 -25.73772 158.8111 184 0 0 255 
-1.09346 -31.71582 152.5222 212 0 0 255 
-1.099148 -11.99739 178.9144 130 255 126 255 
-1.085791 -23.25176 159.7521 176 0 0 255 
-1.081831 -16.49077 166.2276 212 0 0 255 
-1.092366 -8.652209 182.0569 0 0 192 255 
-1.076488 -15.27505 169.474 180 0 0 255 
-1.070201 -14.04282 172.5383 192 0 0 255 
-1.067912 -22.80466 159.8606 180 0 0 255 
-1.061353 -11.53415 179.1684 94 255 162 255 
-1.049939 -13.43165 174.2546 255 24 0 255 
-1.055626 -7.514951 180.4049 0 0 252 255 
-1.042198 -12.85788 178.0001 230 255 26 255 
-1.04292 -11.71322 179.093 110 255 146 255 
-1.041014 -9.439982 183.1501 0 0 164 255 
-1.038332 -8.520888 181.9175 0 0 200 255 
-1.022129 -22.14962 159.9988 180 0 0 255 
-1.034537 -9.49297 183.5659 0 0 148 255 
-1.029544 -7.90426 181.1107 0 0 232 255 
-1.022178 -8.414343 181.7913 0 0 200 255 
-0.999944 -15.74985 168.2356 188 0 0 255 
-0.9949002 -19.63673 160.1169 192 0 0 255 
-1.001933 -8.790517 179.587 0 180 255 255 
-0.9858744 -20.91 160.1214 176 0 0 255 
-0.9783835 -20.50286 160.1354 184 0 0 255 
-0.9764214 -17.32458 163.729 188 0 0 255 
-0.9728718 -18.8334 160.3722 196 0 0 255 
-0.9733389 -13.43559 174.6404 255 40 0 255 
-0.9661406 -15.05335 170.0248 172 0 0 255 
-0.9729415 -8.50083 179.6044 0 152 255 255 
-0.9628373 -12.20714 178.7852 154 255 102 255 
-0.9524203 -26.37747 158.5871 184 0 0 255 
-0.9615418 -8.892492 182.3875 0 0 188 255 
-0.9426467 -25.06775 159.2625 176 0 0 255 
-0.9482563 -9.33743 179.5712 0 216 255 255 
-0.9321119 -31.92952 152.3266 212 0 0 255 
-0.9246366 -18.34969 161.0663 188 0 0 255 
-0.9215761 -16.87813 165.0524 200 0 0 255 
-0.9253252 -10.22088 179.4886 14 255 242 255 
-0.9147891 -19.12699 160.1979 196 0 0 255 
-0.9243146 -9.667124 186.8078 0 0 156 255 
-0.9081212 -29.84147 155.737 196 0 0 255 
-0.9049137 -20.04804 160.1926 188 0 0 255 
-0.9011266 -13.42805 175.5114 255 92 0 255 
-0.9016828 -12.63979 178.3523 198 255 58 255 
-0.8936668 -29.35851 156.2796 196 0 0 255 
-0.8875208 -28.18312 157.3745 192 0 0 255 
-0.8992328 -9.161269 182.7495 0 0 180 255 
-0.8972764 -7.494955 180.4131 0 0 248 255 
-0.8806069 -15.84645 167.9573 184 0 0 255 
-0.8730049 -25.96636 158.8824 184 0 0 255 
-0.8725965 -7.528859 180.2239 0 16 255 255 
-0.8547728 -19.36509 160.2163 192 0 0 255 
-0.8398329 -18.93695 160.3176 196 0 0 255 
-0.8387075 -14.77902 170.705 160 0 0 255 
-0.8331154 -26.64618 158.5239 188 0 0 255 
-0.8282482 -17.53831 162.9844 200 0 0 255 
-0.8213001 -13.49263 173.9051 252 0 0 255 
-0.8250073 -8.01156 179.7625 0 108 255 255 
-0.8120099 -19.61534 160.2548 188 0 0 255 
-0.806871 -28.81016 156.8993 188 0 0 255 
-0.8046293 -30.68853 154.781 208 0 0 255 
-0.8032123 -25.47895 159.1861 180 0 0 255 
-0.8009485 -30.35117 155.2352 204 0 0 255 
-0.7962505 -29.96475 155.7111 192 0 0 255 
-0.7886741 -16.20678 166.9498 204 0 0 255 
-0.7852971 -15.94392 167.6769 188 0 0 255 
-0.7912162 -11.38061 179.2744 82 255 174 255 
-0.7829075 -15.23941 169.5429 180 0 0 255 
-0.7786549 -25.21386 159.3295 184 0 0 255 
-0.7759885 -29.26348 156.4922 192 0 0 255 
-0.7674643 -18.84754 160.3974 196 0 0 255 
-0.762357 -28.52261 157.1979 192 0 0 255 
-0.7601265 -14.96241 170.2466 172 0 0 255 
-0.7721405 -9.10678 182.7168 0 0 184 255 
-0.7499368 -17.28833 163.729 192 0 0 255 
-0.7430672 -22.3613 160.1907 184 0 0 255 
-0.7459503 -12.87888 178.0474 234 255 22 255 
-0.7356101 -16.48747 166.1347 216 0 0 255 
-0.7323441 -18.78771 160.4542 196 0 0 255 
-0.7268228 -21.48641 160.2925 176 0 0 255 
-0.7225357 -18.62076 160.6383 200 0 0 255 
-0.7237775 -13.29171 176.8272 255 176 0 255 
-0.7183202 -25.92988 159.025 184 0 0 255 
-0.7099003 -13.39332 174.1584 255 16 0 255 
-0.7074068 -20.78185 160.3383 184 0 0 255 
-0.7078655 -13.33127 176.5975 255 160 0 255 
-0.7164878 -7.614374 180.7771 0 0 248 255 
-0.6996199 -13.58999 173.6844 240 0 0 255 
-0.697934 -8.785531 182.3333 0 0 200 255 
-0.6915669 -9.572212 185.1456 0 0 140 255 
-0.6743803 -16.859 165.0145 208 0 0 255 
-0.6827989 -7.521008 180.2571 0 24 255 255 
-0.656386 -21.36685 160.3534 176 0 0 255 
-0.6531293 -28.28972 157.4917 196 0 0 255 
-0.6447197 -31.88167 152.9753 216 0 0 255 
-0.636553 -30.56742 155.1371 208 0 0 255 
-0.6502899 -9.447455 183.38 0 0 156 255 
-0.6333793 -27.01902 158.4473 192 0 0 255 
-0.6301138 -18.42599 160.9124 192 0 0 255 
-0.6274175 -32.09372 152.5245 212 0 0 255 
-0.6230702 -18.6898 160.5698 196 0 0 255 
-0.6340126 -7.672819 180.104 0 40 255 255 
-0.6325771 -7.800914 181.1028 0 0 236 255 
-0.6324676 -9.040521 182.6655 0 0 184 255 
-0.6168927 -30.34226 155.4454 200 0 0 255 
-0.6076303 -28.02709 157.7408 184 0 0 255 
-0.6197477 -9.713647 187.6938 0 0 160 255 
-0.6082184 -8.07427 179.7475 0 116 255 255 
-0.5956827 -24.94927 159.5875 192 0 0 255 
-0.6055276 -9.483066 183.739 0 0 144 255 
-0.5959213 -8.079348 181.502 0 0 232 255 
-0.5796872 -29.74313 156.1802 196 0 0 255 
-0.5890799 -7.843682 179.9538 0 80 255 255 
-0.5803339 -12.78981 178.2321 214 255 42 255 
-0.5738792 -31.53077 153.7569 208 0 0 255 
-0.5734287 -30.72497 154.997 212 0 0 255 
-0.5871891 -9.655268 186.6785 0 0 164 255 
-0.5781825 -10.4458 179.5294 30 255 226 255 
-0.5648338 -16.21298 166.8809 204 0 0 255 
-0.5610299 -28.79584 157.1341 192 0 0 255 
-0.5562013 -30.93301 154.7259 208 0 0 255 
-0.5543956 -26.00266 159.1126 188 0 0 255 
-0.5651796 -9.687682 187.2584 0 0 160 255 
-0.5564864 -7.486766 180.5652 0 4 255 255 
-0.5336095 -25.65107 159.3107 188 0 0 255 
-0.532173 -16.07166 167.2747 192 0 0 255 
-0.5305015 -29.10611 156.8731 184 0 0 255 
-0.5267423 -16.34365 166.4948 208 0 0 255 
-0.5226734 -20.2378 160.4774 192 0 0 255 
-0.5221835 -13.38147 174.4085 255 28 0 255 
-0.5192371 -13.38687 174.1836 255 16 0 255 
-0.525671 -7.586598 180.7989 0 0 248 255 
-0.5088129 -15.81355 167.9922 188 0 0 255 
-0.50631 -28.50434 157.4367 196 0 0 255 
-0.5049698 -17.37565 163.3226 200 0 0 255 
-0.5026541 -31.73657 153.4825 212 0 0 255 
-0.4995595 -13.77714 173.2425 220 0 0 255 
-0.5068352 -8.995925 182.645 0 0 192 255 
-0.486541 -16.93024 164.725 208 0 0 255 
-0.4831034 -24.89538 159.6948 192 0 0 255 
-0.478581 -15.92347 167.6826 192 0 0 255 
-0.4838237 -8.030658 179.8283 0 104 255 255 
-0.4690508 -19.50957 160.4975 192 0 0 255 
-0.4662037 -13.13099 177.564 255 228 0 255 
-0.4557892 -31.1662 154.5002 208 0 0 255 
-0.4484614 -25.33029 159.529 188 0 0 255 
-0.4517775 -13.00334 177.896 242 255 14 255 
-0.439868 -29.42031 156.6488 196 0 0 255 
-0.4463287 -7.503539 180.3204 0 12 255 255 
-0.4365277 -8.106966 179.7717 0 116 255 255 
-0.4325083 -9.504319 184.1046 0 0 140 255 
-0.4165963 -14.94742 170.2808 180 0 0 255 
-0.4117431 -29.6753 156.4117 200 0 0 255 
-0.4109124 -22.65472 160.3941 188 0 0 255 
-0.4094419 -30.31923 155.6862 196 0 0 255 
-0.4188927 -7.767312 180.0617 0 60 255 255 
-0.4041296 -32.09787 152.9054 212 0 0 255 
-0.3881406 -16.55583 165.8302 208 0 0 255 
-0.3889484 -13.38056 176.1479 255 132 0 255 
-0.3799805 -23.49872 160.2382 188 0 0 255 
-0.3753819 -21.35219 160.5599 180 0 0 255 
-0.3858999 -7.453113 180.5001 0 0 255 255 
-0.3646133 -17.54888 162.7084 204 0 0 255 
-0.3643276 -13.1981 177.368 255 216 0 255 
-0.3582231 -14.35352 171.7939 184 0 0 255 
-0.3656538 -8.674604 179.7639 0 164 255 255 
-0.3560424 -32.45821 152.1165 204 0 0 255 
-0.3494846 -13.94989 172.8196 204 0 0 255 
-0.3471934 -28.36957 157.6796 200 0 0 255 
-0.347158 -8.336108 179.7847 0 132 255 255 
-0.3469726 -9.487905 183.948 0 0 140 255 
-0.3299957 -18.86694 160.5681 192 0 0 255 
-0.3175457 -13.62757 173.6366 240 0 0 255 
-0.3149856 -23.20146 160.3562 192 0 0 255 
-0.3251233 -9.234286 183.0056 0 0 172 255 
-0.3100734 -26.87268 158.7885 192 0 0 255 
-0.3156597 -7.68199 180.1654 0 44 255 255 
-0.3004067 -32.33362 152.5411 204 0 0 255 
-0.3035885 -13.06932 177.7876 255 252 0 255 
-0.297274 -26.17634 159.2088 188 0 0 255 
-0.2889347 -24.82986 159.8627 188 0 0 255 
-0.2897651 -13.23217 177.251 255 208 0 255 
-0.2813446 -23.05323 160.4125 192 0 0 255 
-0.2756325 -16.86623 164.8409 204 0 0 255 
-0.2697472 -28.96767 157.2278 200 0 0 255 
-0.2803091 -7.642628 180.2126 0 36 255 255 
-0.2798833 -9.50645 184.2044 0 0 144 255 
-0.2643068 -8.790788 179.7831 0 176 255 255 
-0.2539285 -15.64938 168.4162 188 0 0 255 
-0.2519804 -15.48596 168.8631 188 0 0 255 
-0.2511157 -23.73904 160.265 188 0 0 255 
-0.2379419 -31.80725 153.7182 212 0 0 255 
-0.2482691 -7.789206 181.2083 0 0 244 255 
-0.2235208 -24.4614 160.0505 184 0 0 255 
-0.2210355 -32.65137 151.8432 200 0 0 255 
-0.2194342 -16.21426 166.8009 204 0 0 255 
-0.216934 -32.15495 153.0755 212 0 0 255 
-0.2160379 -13.44421 174.1091 255 16 0 255 
-0.2098591 -13.35105 174.3025 255 24 0 255 
-0.217493 -9.624936 186.2587 0 0 132 255 
-0.2111503 -8.053868 179.8774 0 104 255 255 
-0.213876 -8.83684 182.5219 0 0 200 255 
-0.2107655 -8.449583 182.0611 0 0 212 255 
-0.1954074 -21.22593 160.6937 184 0 0 255 
-0.1868641 -18.1596 161.3126 192 0 0 255 
-0.1838067 -20.10908 160.7108 188 0 0 255 
-0.1955496 -9.191551 182.9768 0 0 176 255 
-0.1875813 -9.53046 184.6023 0 0 148 255 
-0.1789146 -7.509776 180.365 0 24 255 255 
-0.1663264 -31.77684 153.8649 212 0 0 255 
-0.1690177 -13.1476 177.6117 255 232 0 255 
-0.1634154 -31.4307 154.437 208 0 0 255 
-0.1642344 -13.38624 175.949 255 124 0 255 
-0.1734437 -9.563352 185.1829 0 0 136 255 
-0.1516342 -27.06004 158.7851 196 0 0 255 
-0.1480489 -32.31943 152.8297 212 0 0 255 
-0.1361435 -15.85597 167.827 192 0 0 255 
-0.1327766 -18.82848 160.6925 196 0 0 255 
-0.1249324 -18.02042 161.5578 196 0 0 255 
-0.1293148 -11.34914 179.4048 82 255 174 255 
-0.1275604 -11.55855 179.332 102 255 154 255 
-0.1270994 -11.94018 179.1531 118 255 138 255 
-0.1169926 -32.40165 152.6912 204 0 0 255 
-0.1214181 -11.75039 179.2533 110 255 146 255 
-0.1090629 -21.76286 160.72 184 0 0 255 
-0.1212486 -8.013123 181.548 0 0 236 255 
-0.1054987 -25.61906 159.6374 188 0 0 255 
-0.102292 -29.76612 156.5935 200 0 0 255 
-0.1007212 -13.37856 176.176 255 140 0 255 
-0.09697458 -10.78789 179.559 46 255 210 255 
-0.0776337 -17.78074 162.0387 196 0 0 255 
-0.08654708 -7.449432 180.5618 0 12 255 255 
-0.07278348 -15.28542 169.3976 192 0 0 255 
-0.06834891 -30.53988 155.7513 204 0 0 255 
-0.06514987 -13.38665 175.6474 255 112 0 255 
-0.05445361 -24.77441 160.0489 184 0 0 255 
-0.04911486 -30.84486 155.3879 216 0 0 255 
-0.04240818 -13.35579 176.5107 255 160 0 255 
-0.05096523 -9.437795 183.5466 0 0 164 255 
-0.04292696 -9.148358 182.9552 0 0 176 255 
-0.02722953 -25.03333 159.9607 188 0 0 255 
-0.01069492 -13.34886 174.6709 255 40 0 255 
-0.00606709 -29.24366 157.1885 196 0 0 255 
-0.003942469 -22.5721 160.6933 188 0 0 255 
0.004020021 -24.40155 160.2289 184 0 0 255 
0.008307124 -30.21065 156.2082 208 0 0 255 
0.001058717 -8.373462 179.878 0 132 255 255 
0.01151833 -13.37627 175.3504 255 80 0 255 
0.01571696 -14.83408 170.5835 180 0 0 255 
0.01772078 -19.48121 160.8229 192 0 0 255 
0.01278359 -8.785613 179.8562 0 172 255 255 
0.02784234 -16.26235 166.6081 204 0 0 255 
0.01539767 -8.804399 182.5378 0 0 200 255 
0.03153609 -18.55183 160.8524 192 0 0 255 
0.03673334 -29.95545 156.5141 208 0 0 255 
0.03729535 -23.87553 160.4235 188 0 0 255 
0.04377385 -32.35019 153.0515 208 0 0 255 
0.03606079 -7.853173 180.0932 0 60 255 255 
0.05133265 -18.14532 161.3226 196 0 0 255 
0.05027365 -12.32187 178.9131 158 255 98 255 
0.04894365 -7.44867 180.5854 0 8 255 255 
0.05387994 -8.141203 179.9041 0 104 255 255 
0.06814357 -13.32214 174.4897 255 36 0 255 
0.06319441 -8.333087 181.9883 0 0 216 255 
0.08394078 -31.53872 154.5482 208 0 0 255 
0.07724837 -9.693096 187.3808 0 0 172 255 
0.07934328 -7.54354 180.3994 0 24 255 255 
0.09977657 -17.26191 163.387 192 0 0 255 
0.09459039 -12.46898 178.7856 170 255 86 255 
0.08910576 -9.473014 183.9216 0 0 144 255 
0.1135875 -24.61509 160.2236 184 0 0 255 
0.1135797 -13.08523 177.8847 254 255 1 255 
0.1203397 -19.08325 160.8653 196 0 0 255 
0.1273015 -27.53864 158.6633 204 0 0 255 
0.1323048 -14.12035 172.43 192 0 0 255 
0.1345143 -27.3533 158.7947 196 0 0 255 
0.1332644 -12.01419 179.1608 126 255 130 255 
0.1404972 -21.71373 160.8932 184 0 0 255 
0.1368956 -7.713006 181.2065 0 0 248 255 
0.1566923 -13.37628 176.2473 255 144 0 255 
0.1726818 -30.4713 156.0546 208 0 0 255 
0.1752074 -29.89352 156.6962 212 0 0 255 
0.1805956 -26.9637 159.0789 188 0 0 255 
0.1727197 -9.314393 183.2236 0 0 172 255 
0.1915412 -22.75078 160.7928 184 0 0 255 
0.1859778 -11.17597 179.515 66 255 190 255 
0.1894657 -12.95477 178.1745 230 255 26 255 
0.1994952 -20.54409 160.9706 192 0 0 255 
0.2020438 -20.23915 160.9681 192 0 0 255 
0.1930468 -7.433786 180.6067 0 12 255 255 
0.206512 -32.86561 152.0736 192 0 0 255 
0.2070311 -24.38932 160.3672 180 0 0 255 
0.2094296 -23.70896 160.5844 188 0 0 255 
0.2110497 -18.02936 161.5134 192 0 0 255 
0.2110015 -32.07447 153.8073 212 0 0 255 
0.2134003 -19.66402 160.9559 188 0 0 255 
0.2113202 -13.37958 175.8738 255 124 0 255 
0.2173938 -28.3265 158.1416 192 0 0 255 
0.2213575 -25.66785 159.8345 188 0 0 255 
0.2264223 -16.99695 164.2109 192 0 0 255 
0.2210545 -10.70852 179.6405 34 255 222 255 
0.2237346 -7.56386 180.4174 0 28 255 255 
0.225647 -7.519602 180.887 0 0 252 255 
0.2411058 -13.31669 177.008 255 184 0 255 
0.2457744 -8.082003 179.9823 0 100 255 255 
0.2598472 -13.27106 177.299 255 208 0 255 
0.2716202 -15.21167 169.5945 188 0 0 255 
0.2736947 -16.6085 165.4736 200 0 0 255 
0.2798684 -13.71977 173.4841 228 0 0 255 
0.2748166 -8.401922 179.9504 0 120 255 255 
0.2723838 -9.420443 183.4883 0 0 156 255 
0.2924944 -17.92823 161.6932 196 0 0 255 
0.2959451 -13.34267 176.8068 255 172 0 255 
0.2919495 -9.281058 183.1939 0 0 168 255 
0.3101472 -29.49031 157.2031 200 0 0 255 
0.3165826 -13.51609 174.0141 255 0 0 255 
0.3189669 -16.90484 164.4856 196 0 0 255 
0.3283998 -13.36529 176.5605 255 156 0 255 
0.328979 -7.520226 180.9303 0 0 255 255 
0.3460476 -23.14935 160.812 184 0 0 255 
0.3644565 -18.11121 161.374 192 0 0 255 
0.3547404 -7.72269 180.2809 0 52 255 255 
0.3537211 -9.467812 183.9221 0 0 140 255 
0.3714371 -31.54839 154.836 216 0 0 255 
0.3754882 -24.45148 160.4524 180 0 0 255 
0.376562 -24.03668 160.5933 188 0 0 255 
0.3781675 -29.90658 156.8451 208 0 0 255 
0.3819506 -20.89906 161.0867 192 0 0 255 
0.376545 -10.156 179.785 0 252 255 255 
0.3923666 -13.17905 177.7273 255 236 0 255 
0.3910724 -10.49902 179.7223 14 255 242 255 
0.3896111 -9.518433 184.544 0 0 160 255 
0.4082261 -17.34032 163.0173 196 0 0 255 
0.4130689 -13.30617 174.5438 255 40 0 255 
0.4161845 -16.08824 167.0736 192 0 0 255 
0.418027 -28.49677 158.148 192 0 0 255 
0.4164672 -11.29507 179.5238 62 255 194 255 
0.4340525 -32.37212 153.5303 216 0 0 255 
0.4354566 -31.88805 154.3792 212 0 0 255 
0.4409073 -26.28446 159.653 192 0 0 255 
0.4452817 -30.831 155.8638 212 0 0 255 
0.452244 -13.04634 178.0809 230 255 26 255 
0.4616956 -25.95341 159.8445 188 0 0 255 
0.4531028 -8.163059 181.8823 0 0 216 255 
0.4563707 -7.52179 180.9474 0 4 255 255 
0.4713055 -18.22719 161.2251 192 0 0 255 
0.4781873 -17.28271 163.1653 196 0 0 255 
0.4865441 -23.80447 160.7319 184 0 0 255 
0.4968031 -28.22297 158.4169 196 0 0 255 
0.5013404 -18.4132 161.0926 192 0 0 255 
0.4937025 -10.93678 179.6398 50 255 206 255 
0.4989541 -12.1876 179.1149 126 255 130 255 
0.5036398 -12.81008 178.4826 194 255 62 255 
0.5096603 -13.3153 174.8008 255 52 0 255 
0.5185925 -32.11518 154.0921 212 0 0 255 
0.5291141 -24.64761 160.4751 180 0 0 255 
0.5344024 -14.92651 170.3704 184 0 0 255 
0.5415491 -22.14415 161.1092 184 0 0 255 
0.5345333 -9.951601 179.8546 0 244 255 255 
0.5330153 -9.631755 186.395 0 0 132 255 
0.5524253 -14.57435 171.2962 168 0 0 255 
0.5640807 -17.47719 162.6194 196 0 0 255 
0.5586876 -8.641843 180.0096 0 148 255 255 
0.5708149 -15.31178 169.3272 196 0 0 255 
0.5669865 -13.15122 177.8771 255 252 0 255 
0.5739874 -30.56396 156.288 208 0 0 255 
0.5754125 -13.93498 172.9708 212 0 0 255 
0.581771 -29.15454 157.7096 200 0 0 255 
0.5801816 -11.80188 179.3652 102 255 154 255 
0.5770539 -9.674493 187.0446 0 0 156 255 
0.5812333 -9.465053 183.9341 0 0 140 255 
0.5995143 -15.48786 168.8322 192 0 0 255 
0.6107838 -13.52064 174.056 255 0 0 255 
0.6038609 -8.113749 180.0558 0 104 255 255 
0.6168317 -32.85681 152.7575 204 0 0 255 
0.6188279 -13.36844 175.7442 255 104 0 255 
0.6220796 -23.50573 160.8965 184 0 0 255 
0.625958 -32.59386 153.3333 212 0 0 255 
0.6237388 -10.02322 179.8642 0 244 255 255 
0.6362318 -18.22809 161.2504 192 0 0 255 
0.6255736 -7.502031 180.9434 0 4 255 255 
0.6401056 -24.12018 160.7284 184 0 0 255 
0.640401 -29.48956 157.4472 200 0 0 255 
0.6429842 -17.8604 161.7972 188 0 0 255 
0.6438061 -18.41708 161.1561 188 0 0 255 
0.6419472 -13.372 176.7899 255 172 0 255 
0.6538135 -31.69035 154.9045 216 0 0 255 
0.6502532 -12.03899 179.2471 114 255 142 255 
0.6617207 -18.47872 161.1465 188 0 0 255 
0.6645212 -13.3475 177.0712 255 184 0 255 
0.6813523 -16.3084 166.3491 200 0 0 255 
0.6751623 -9.019756 180.0089 0 176 255 255 
0.6866559 -22.72449 161.1091 180 0 0 255 
0.6915654 -25.5212 160.2009 184 0 0 255 
0.6971569 -15.70008 168.2197 192 0 0 255 
0.6984161 -29.79055 157.2014 204 0 0 255 
0.6901715 -9.375187 183.4504 0 0 156 255 
0.7096672 -21.14392 161.2855 196 0 0 255 
0.7152259 -16.9471 164.1892 196 0 0 255 
0.7074835 -7.43475 180.6966 0 16 255 255 
0.7192461 -12.37411 179.0077 146 255 110 255 
0.7152635 -8.046449 181.8065 0 0 216 255 
0.7391538 -31.95024 154.5936 212 0 0 255 
0.7275992 -9.039052 182.9855 0 0 176 255 
0.7468974 -15.60497 168.4963 192 0 0 255 
0.7432073 -10.17897 179.8617 2 255 254 255 
0.7409706 -7.73336 181.3819 0 0 236 255 
0.7606791 -14.14226 172.4547 200 0 0 255 
0.761863 -28.59393 158.3035 196 0 0 255 
0.763407 -10.72174 179.7505 30 255 226 255 
0.7612333 -7.897318 180.2231 0 68 255 255 
0.7735859 -30.61665 156.3865 212 0 0 255 
0.7793191 -18.24818 161.2832 196 0 0 255 
0.7860347 -20.55201 161.3339 196 0 0 255 
0.7901086 -24.70954 160.6071 180 0 0 255 
0.7927213 -31.45671 155.3604 212 0 0 255 
0.7946831 -21.562 161.3177 196 0 0 255 
0.796609 -33.26309 151.9907 196 0 0 255 
0.794889 -13.35788 175.6228 255 84 0 255 
0.7929904 -9.264338 180.0139 0 192 255 255 
0.8101307 -17.31609 162.9772 200 0 0 255 
0.7992638 -7.585262 180.5287 0 28 255 255 
0.8133968 -17.25119 163.1518 196 0 0 255 
0.8189251 -16.81459 164.6189 204 0 0 255 
0.8268065 -23.91848 160.9016 188 0 0 255 
0.8298459 -27.77983 158.9612 204 0 0 255 
0.8399408 -22.95811 161.1545 184 0 0 255 
0.8404351 -13.75277 173.4942 236 0 0 255 
0.8458333 -17.08295 163.6702 196 0 0 255 
0.8534963 -25.36792 160.3676 184 0 0 255 
0.8598349 -22.43909 161.2609 184 0 0 255 
0.8523346 -7.432302 180.7219 0 16 255 255 
0.8730439 -14.58194 171.3151 180 0 0 255 
0.870756 -12.7754 178.6165 178 255 78 255 
0.883877 -32.82766 153.1716 200 0 0 255 
0.8877573 -21.20234 161.3905 200 0 0 255 
0.8918174 -31.77804 154.9981 216 0 0 255 
0.8820388 -9.569379 185.3751 0 0 132 255 
0.904815 -27.25349 159.3613 192 0 0 255 
0.9095394 -26.90916 159.5805 192 0 0 255 
0.9189948 -30.40842 156.7277 216 0 0 255 
0.922447 -24.53778 160.7487 184 0 0 255 
0.9289062 -21.86023 161.3745 196 0 0 255 
0.9301152 -17.65509 162.183 196 0 0 255 
0.9321062 -13.42862 174.3623 255 20 0 255 
0.9362942 -26.45102 159.8647 196 0 0 255 
0.9505274 -18.27431 161.3322 196 0 0 255 
0.9516446 -18.52439 161.3146 196 0 0 255 
0.9446754 -8.209188 180.1369 0 112 255 255 
0.9581437 -23.75807 161.0236 184 0 0 255 
0.9623227 -26.17964 160.0287 196 0 0 255 
0.9499028 -9.050002 183.0565 0 0 128 255 
0.9667578 -14.73046 170.9336 180 0 0 255 
0.9711847 -20.82104 161.4454 200 0 0 255 
0.9737303 -16.44552 165.845 200 0 0 255 
0.9964631 -13.32212 175.1921 255 52 0 255 
1.000013 -30.93779 156.1881 212 0 0 255 
1.000389 -13.29372 174.8848 255 36 0 255 
1.006063 -19.25888 161.4041 200 0 0 255 
1.001297 -9.530333 184.7462 0 0 148 255 
1.013578 -11.11569 179.6999 46 255 210 255 
1.024195 -30.32093 156.8971 216 0 0 255 
1.028649 -33.07714 152.8088 196 0 0 255 
1.02931 -20.32723 161.4721 196 0 0 255 
1.019668 -7.68739 181.391 0 0 244 255 
1.036901 -27.29509 159.4149 192 0 0 255 
1.032079 -9.993864 179.9629 0 240 255 255 
1.042877 -32.16379 154.5503 216 0 0 255 
1.054473 -21.13913 161.4897 200 0 0 255 
1.051976 -11.726 179.4911 90 255 166 255 
1.060782 -31.51703 155.5079 220 0 0 255 
1.056818 -13.12375 178.1061 230 255 26 255 
1.05868 -13.27899 177.6984 255 232 0 255 
1.065818 -21.48279 161.4814 196 0 0 255 
1.076675 -23.4909 161.1635 184 0 0 255 
1.080076 -31.18063 155.9561 220 0 0 255 
1.071073 -9.478376 184.1242 0 0 148 255 
1.075652 -7.502088 181.0387 0 0 252 255 
1.090168 -18.31195 161.3815 196 0 0 255 
1.095671 -17.81856 161.8634 192 0 0 255 
1.083952 -9.335214 183.4684 0 0 156 255 
1.1019 -24.96278 160.6832 180 0 0 255 
1.096432 -8.009635 180.2292 0 80 255 255 
1.111341 -18.09035 161.4913 192 0 0 255 
1.101776 -7.847562 180.3454 0 64 255 255 
1.118759 -30.16583 157.1238 216 0 0 255 
1.120648 -18.87941 161.4401 196 0 0 255 
1.123746 -11.87539 179.4329 98 255 158 255 
1.130689 -28.06605 158.9428 212 0 0 255 
1.125517 -10.46119 179.8885 14 255 242 255 
1.153461 -17.19477 163.2277 196 0 0 255 
1.143646 -7.648803 181.3512 0 0 244 255 
1.147804 -7.449414 180.7898 0 12 255 255 
1.167121 -13.38248 175.9838 255 104 0 255 
1.173979 -25.41689 160.5261 188 0 0 255 
1.181072 -32.08963 154.794 220 0 0 255 
1.181637 -13.30151 174.7381 255 24 0 255 
1.183241 -13.35171 175.5988 255 72 0 255 
1.171008 -9.507227 184.4374 0 0 152 255 
1.186312 -13.33967 177.5202 255 216 0 255 
1.19396 -13.38657 174.5306 255 12 0 255 
1.197868 -23.45781 161.2392 184 0 0 255 
1.202284 -26.15098 160.1793 192 0 0 255 
1.190548 -7.575006 180.624 0 24 255 255 
1.204967 -15.68814 168.254 196 0 0 255 
1.197409 -10.19316 179.9615 0 252 255 255 
1.209771 -16.99035 163.8579 196 0 0 255 
1.215766 -14.36164 171.9472 188 0 0 255 
1.218162 -17.7257 162.034 196 0 0 255 
1.211605 -9.525686 184.6678 0 0 144 255 
1.23172 -28.95043 158.3132 200 0 0 255 
1.239328 -16.76052 164.679 204 0 0 255 
1.230584 -9.702446 187.3109 0 0 152 255 
1.246314 -17.1258 163.4064 196 0 0 255 
1.238058 -8.149433 182.0559 0 0 216 255 
1.238523 -9.59953 185.7692 0 0 136 255 
1.257446 -16.55658 165.4043 208 0 0 255 
1.260575 -33.46306 152.1701 200 0 0 255 
1.257565 -9.309397 183.4653 0 0 128 255 
1.268403 -12.9223 178.5092 194 255 62 255 
1.282157 -29.53178 157.84 204 0 0 255 
1.283476 -21.87504 161.5733 200 0 0 255 
1.288535 -32.56754 154.1157 220 0 0 255 
1.289477 -16.42333 165.8652 200 0 0 255 
1.278083 -9.026905 183.0984 0 0 172 255 
1.296066 -28.19339 158.9482 212 0 0 255 
1.294227 -7.86372 180.3834 0 68 255 255 
1.307834 -14.77448 170.8598 184 0 0 255 
1.307824 -31.07892 156.2493 212 0 0 255 
1.297066 -7.443032 180.8553 0 12 255 255 
1.302934 -9.071359 180.1596 0 172 255 255 
1.314989 -33.30214 152.6558 196 0 0 255 
1.320727 -31.97048 155.0919 220 0 0 255 
1.32313 -8.523036 180.2135 0 136 255 255 
1.32326 -7.459621 180.8104 0 12 255 255 
1.323669 -9.198359 183.3254 0 0 156 255 
1.340552 -25.88393 160.3926 192 0 0 255 
1.327988 -8.867955 182.9154 0 0 172 255 
1.346673 -27.81966 159.2449 200 0 0 255 
1.350672 -13.28304 174.944 255 36 0 255 
1.357389 -18.16305 161.5283 196 0 0 255 
1.346709 -9.671345 186.8043 0 0 144 255 
1.365306 -22.35871 161.5558 192 0 0 255 
1.369299 -24.77673 160.9021 188 0 0 255 
1.374186 -15.34922 169.2625 196 0 0 255 
1.370264 -13.22622 177.9804 242 255 14 255 
1.377864 -30.32137 157.1381 216 0 0 255 
1.385155 -13.37457 175.8396 255 96 0 255 
1.389941 -28.04573 159.1102 208 0 0 255 
1.392939 -14.37273 171.9503 196 0 0 255 
1.380357 -9.491461 184.2677 0 0 144 255 
1.41151 -31.97562 155.1596 224 0 0 255 
1.417964 -17.18099 163.226 196 0 0 255 
1.408141 -9.452842 183.9314 0 0 148 255 
1.42885 -29.31292 158.1263 204 0 0 255 
1.433091 -17.87048 161.788 196 0 0 255 
1.435685 -17.78585 161.929 192 0 0 255 
1.438684 -16.30104 166.2723 208 0 0 255 
1.439924 -33.21505 153.0125 212 0 0 255 
1.429243 -7.86627 180.4144 0 64 255 255 
1.443676 -23.66708 161.3133 188 0 0 255 
1.430104 -9.554398 185.0659 0 0 140 255 
1.443968 -13.42647 176.4749 255 132 0 255 
1.442372 -8.795485 180.2211 0 140 255 255 
1.456945 -13.48499 174.3374 255 16 0 255 
1.449682 -7.460682 180.8384 0 12 255 255 
1.464813 -27.05745 159.8077 196 0 0 255 
1.468504 -15.54039 168.7068 192 0 0 255 
1.466733 -13.44054 176.7376 255 156 0 255 
1.475103 -32.26009 154.7896 220 0 0 255 
1.466496 -8.053551 180.3139 0 84 255 255 
1.47852 -18.22372 161.5687 196 0 0 255 
1.470694 -7.579478 180.6817 0 36 255 255 
1.490797 -21.1372 161.7321 200 0 0 255 
1.488742 -13.43784 177.0694 255 184 0 255 
1.493361 -11.35473 179.7272 38 255 218 255 
1.508793 -15.95523 167.4213 192 0 0 255 
1.511077 -25.16777 160.8145 184 0 0 255 
1.507099 -11.94216 179.4743 82 255 174 255 
1.515598 -13.18082 178.1354 222 255 34 255 
1.523154 -13.31426 174.806 255 24 0 255 
1.532142 -15.04164 170.157 192 0 0 255 
1.535437 -16.79542 164.4661 204 0 0 255 
1.537803 -17.61747 162.2385 196 0 0 255 
1.532339 -10.71269 179.9207 2 255 254 255 
1.54294 -15.71413 168.1843 196 0 0 255 
1.539753 -8.554611 180.2651 0 128 255 255 
1.555456 -15.81183 167.8795 192 0 0 255 
1.557454 -26.70668 160.0649 196 0 0 255 
1.565571 -13.2816 174.9803 255 32 0 255 
1.571612 -16.9471 163.9012 200 0 0 255 
1.574188 -17.67562 162.1285 196 0 0 255 
1.573327 -12.80192 178.7399 170 255 86 255 
1.57857 -13.31059 175.2104 255 44 0 255 
1.583632 -33.57558 152.3298 204 0 0 255 
1.587337 -33.02623 153.5672 216 0 0 255 
1.579674 -9.327971 180.1949 0 176 255 255 
1.591377 -23.56875 161.4163 188 0 0 255 
1.598081 -31.56469 155.8599 220 0 0 255 
1.604469 -13.45273 177.0067 255 184 0 255 
1.617119 -13.34873 175.5611 255 76 0 255 
1.623311 -13.6741 173.8701 248 0 0 255 
1.630418 -30.68065 156.9241 220 0 0 255 
1.633175 -18.21507 161.6454 196 0 0 255 
1.628505 -8.051282 180.3494 0 80 255 255 
1.640321 -16.20021 166.6037 200 0 0 255 
1.645624 -15.26142 169.5437 196 0 0 255 
1.647447 -29.77556 157.8416 208 0 0 255 
1.648556 -19.48831 161.772 200 0 0 255 
1.653168 -33.19875 153.2867 212 0 0 255 
1.661098 -31.0789 156.4955 212 0 0 255 
1.647371 -9.310763 183.5491 0 0 164 255 
1.648203 -9.499609 184.3486 0 0 144 255 
1.652372 -8.293564 180.3131 0 100 255 255 
1.668576 -14.71371 171.0804 184 0 0 255 
1.675274 -24.40384 161.1967 188 0 0 255 
1.688357 -32.26557 154.9578 220 0 0 255 
1.693794 -33.44864 152.7813 200 0 0 255 
1.700021 -28.47732 158.9664 204 0 0 255 
1.699104 -7.903414 180.4569 0 64 255 255 
1.716159 -17.00311 163.6804 196 0 0 255 
1.719835 -27.20978 159.8494 192 0 0 255 
1.723009 -25.4508 160.7958 184 0 0 255 
1.723837 -27.01991 159.9671 192 0 0 255 
1.722052 -13.12082 178.3128 210 255 46 255 
1.735097 -16.84372 164.2284 200 0 0 255 
1.739005 -30.29374 157.3957 212 0 0 255 
1.746486 -17.88534 161.8172 196 0 0 255 
1.739527 -8.591705 182.6761 0 0 188 255 
1.756245 -16.73562 164.6353 200 0 0 255 
1.749198 -11.61248 179.6832 46 255 210 255 
1.765009 -18.07352 161.7209 192 0 0 255 
1.765439 -27.74075 159.5295 196 0 0 255 
1.767207 -17.40054 162.6803 200 0 0 255 
1.772844 -18.19866 161.7116 192 0 0 255 
1.774492 -31.87189 155.5826 220 0 0 255 
1.778067 -33.10329 153.6091 216 0 0 255 
1.779883 -32.79792 154.175 220 0 0 255 
1.773095 -7.590657 180.7435 0 24 255 255 
1.779411 -11.47133 179.7452 34 255 222 255 
1.778636 -9.602537 185.6602 0 0 132 255 
1.780579 -7.764773 180.5863 0 32 255 255 
1.798764 -27.89424 159.4429 200 0 0 255 
1.798075 -8.186277 182.2109 0 0 212 255 
1.814405 -13.94604 173.1798 228 0 0 255 
1.825092 -25.24449 160.9376 184 0 0 255 
1.814375 -9.429891 183.8402 0 0 160 255 
1.83153 -23.96856 161.4181 188 0 0 255 
1.823573 -7.901746 180.4917 0 52 255 255 
1.843366 -30.74507 156.9898 220 0 0 255 
1.830416 -9.636539 186.1192 0 0 132 255 
1.831438 -9.544361 184.8283 0 0 140 255 
1.857091 -19.25972 161.8618 196 0 0 255 
1.858562 -17.97333 161.7978 196 0 0 255 
1.861045 -33.66555 152.4595 208 0 0 255 
1.861474 -13.73765 173.7576 252 0 0 255 
1.855657 -7.661144 181.5042 0 0 232 255 
1.870115 -24.42519 161.2837 188 0 0 255 
1.871733 -18.60368 161.8057 188 0 0 255 
1.873629 -15.16362 169.8589 200 0 0 255 
1.872837 -11.80188 179.6199 58 255 198 255 
1.885266 -29.04603 158.6181 196 0 0 255 
1.885858 -16.34163 166.0908 208 0 0 255 
1.891566 -13.48008 177.1799 255 204 0 255 
1.89891 -14.70655 171.1431 192 0 0 255 
1.905994 -23.13842 161.6782 188 0 0 255 
1.914967 -18.11773 161.7711 192 0 0 255 
1.920432 -17.49188 162.4899 200 0 0 255 
