ply
format ascii 1.0
comment PCL generated
element vertex 1203
property float x
property float y
property float z
property uchar red
property uchar green
property uchar blue
element face 0
element camera 0
property float view_px
property float view_py
property float view_pz
property float x_axisx
property float x_axisy
property float x_axisz
property float y_axisx
property float y_axisy
property float y_axisz
property float z_axisx
property float z_axisy
property float z_axisz
property float focal
property float scalex
property float scaley
property float centerx
property float centery
property int viewportx
property int viewporty
property float k1
property float k2
end_header
-19.11944 -21.39167 989.83759 255 196 0
-19.069351 -20.717106 987.18726 0 232 255
-19.066221 -19.991693 986.97583 244 0 0
-19.061831 -19.265539 986.6991 255 60 0
-19.058182 -18.525047 986.46692 255 128 0
-18.940535 -16.89974 980.37036 0 44 255
-18.94121 -16.146904 980.37683 0 72 255
-18.943014 -15.410703 980.45398 0 100 255
-18.943621 -14.700263 980.4646 0 128 255
-18.942297 -13.980467 980.36353 0 172 255
-18.943975 -13.259483 980.4223 0 196 255
-18.993137 -12.360408 982.95337 0 0 136
-18.997999 -11.612835 983.19244 0 0 136
-19.002596 -10.866252 983.42072 0 0 136
-19.00684 -10.117811 983.64264 0 0 136
-19.01096 -9.3685226 983.86371 0 0 136
-19.014896 -8.61938 984.07007 0 0 136
-19.147905 -7.8421412 990.96674 0 0 140
-19.140015 -7.0785737 990.56061 0 0 140
-19.129395 -6.4019008 990.00018 0 0 136
-19.12417 -5.6085615 989.73486 0 0 132
-19.117191 -4.8749037 989.37476 0 0 136
-19.108458 -4.2073936 988.91534 0 0 136
-19.100328 -3.4598398 988.48846 0 0 136
-19.094431 -2.6706443 988.18774 0 0 136
-19.091127 -1.8661454 988.0224 0 0 136
-19.088181 -1.0089417 987.88306 0 0 136
-19.083546 -0.25137237 987.64789 0 0 136
-19.078096 0.44418994 987.3548 0 0 136
-19.075521 1.1546179 987.22064 0 0 136
-19.076302 1.8808924 987.25769 0 0 144
-19.076523 2.6387584 987.26917 0 0 136
-19.073679 3.3767204 987.11792 0 0 140
-19.069813 4.1234174 986.9176 0 0 140
-19.068434 4.8746924 986.84949 0 0 136
-19.069105 5.6190772 986.88391 0 0 140
-19.06464 6.4376488 986.67114 0 0 136
-19.065535 7.2500849 986.7287 0 0 136
-19.067331 8.003603 986.81458 0 0 136
-19.070562 8.7329454 986.97455 0 0 132
-19.072493 9.4633503 987.06787 0 0 132
-19.074434 10.231236 987.17334 0 0 132
-19.05934 10.840987 986.35614 0 0 140
-18.97646 11.651327 982.10681 0 0 136
-18.967365 12.396712 981.64459 0 0 136
-18.957481 13.139069 981.14679 0 0 136
-18.947628 13.880949 980.65588 0 0 136
-18.937485 14.622296 980.15717 0 0 136
-18.926689 15.362961 979.6203 0 0 136
-18.915657 16.102606 979.07544 0 0 136
-18.904478 16.83954 978.51807 0 0 136
-18.893257 17.573589 977.96887 0 0 136
-18.882267 18.311981 977.43573 0 0 136
-18.827326 18.984079 974.61786 0 188 255
-18.824047 19.730391 974.48621 0 128 255
-18.819458 20.480463 974.2785 0 0 136
-18.815979 21.222263 974.13049 0 0 136
-18.81374 21.966787 974.04803 0 0 136
-18.813679 22.706856 974.07709 0 0 136
-18.813211 23.448719 974.09076 0 0 132
-18.812735 24.191223 974.10498 0 0 132
-18.81176 24.933985 974.08899 0 0 132
-18.81218 25.680643 974.14496 0 0 132
-18.812664 26.429119 974.20776 0 0 128
-18.81321 27.178226 974.26453 0 0 128
-18.81476 27.924538 974.36517 0 0 128
-18.816385 28.673138 974.46429 0 0 128
-18.818729 29.422085 974.60602 0 0 128
-18.820763 30.173708 974.72632 0 0 128
-18.823795 30.935369 974.89771 0 0 128
-18.825747 31.66312 974.99261 0 0 128
-18.617361 32.01125 964.18225 0 0 128
-18.614466 32.752445 964.04321 0 0 128
-18.611214 33.501621 963.88934 0 0 128
-18.60924 34.243145 963.79651 0 0 128
-18.607618 34.970531 963.71539 0 0 128
-18.606886 35.699139 963.67377 0 0 128
-18.604897 36.441139 963.57935 0 0 128
-18.602795 37.177841 963.46979 0 0 128
-18.60051 37.91328 963.35309 0 0 128
-18.59819 38.645027 963.23608 0 0 128
-18.596014 39.376701 963.12604 0 0 128
-18.593838 40.107777 963.01306 0 0 128
-18.591705 40.838905 962.90204 0 0 128
-18.589674 41.569546 962.79089 0 0 128
-18.587526 42.300045 962.68011 0 0 128
-18.585537 43.031227 962.56824 0 0 128
-18.583202 43.76532 962.44751 0 0 128
-18.580753 44.498177 962.32434 0 0 128
-18.578438 45.230034 962.20435 0 0 128
-18.576086 45.96154 962.08014 0 0 128
-18.573797 46.690083 961.96045 0 0 128
-18.571354 47.421314 961.83844 0 0 128
-18.568747 48.152691 961.70245 0 0 128
-18.566143 48.883156 961.56561 0 0 128
-18.563532 49.606319 961.42816 0 0 128
-18.560812 50.335342 961.28772 0 0 128
-18.557795 51.066662 961.13269 0 0 128
-18.554043 51.796684 960.94135 0 0 128
-18.54949 52.521484 960.70294 0 0 128
-18.548384 53.248558 960.63922 0 0 128
-18.545385 53.980247 960.4906 0 0 128
-18.542973 54.7066 960.36261 0 0 128
-18.540411 55.42429 960.21863 0 0 128
-18.539236 56.135735 960.14185 0 0 128
-18.537413 56.865658 960.04926 0 0 128
-18.536255 57.581585 959.97607 0 0 128
-18.535183 58.313694 959.92059 0 0 128
-18.533998 59.030258 959.84546 0 0 128
-18.532875 59.756725 959.78241 0 0 128
-18.531582 60.487312 959.71143 0 0 128
-18.530216 61.216389 959.63391 0 0 128
-18.529444 61.941475 959.58002 0 0 128
-18.527719 62.671909 959.49786 0 0 128
-18.526093 63.400311 959.39825 0 0 128
-18.524338 64.132011 959.31104 0 0 128
-18.522102 64.865189 959.20874 0 0 128
-18.520065 65.598595 959.10889 0 0 128
-18.517994 66.325745 958.99585 0 0 128
-18.515629 67.048981 958.87103 0 0 128
-18.513414 67.770569 958.7442 0 0 128
-18.511169 68.494026 958.62665 0 0 128
-18.508865 69.216003 958.50757 0 0 128
-18.5068 69.938194 958.39978 0 0 128
-18.504948 70.662102 958.2948 0 0 128
-18.502987 71.386612 958.19476 0 0 128
-18.501005 72.111458 958.09259 0 0 128
-18.499199 72.835327 957.98792 0 0 128
-18.497114 73.559074 957.87946 0 0 128
-18.494814 74.2826 957.77649 0 0 128
-18.492834 75.004707 957.66931 0 0 128
-18.490959 75.728333 957.56055 0 0 128
-18.488886 76.452148 957.45068 0 0 128
-18.486736 77.175209 957.34058 0 0 128
-18.484819 77.897423 957.22955 0 0 128
-18.48275 78.619301 957.11652 0 0 128
-18.480532 79.341248 957.00024 0 0 128
-18.478514 80.063606 956.88904 0 0 128
-18.476421 80.785255 956.77588 0 0 128
-18.474621 81.508858 956.68335 0 0 128
-18.472748 82.23082 956.58185 0 0 128
-18.470684 82.952667 956.47412 0 0 128
-18.468769 83.674454 956.36908 0 0 128
-18.467083 84.396446 956.26538 0 0 128
-18.465216 85.118034 956.16058 0 0 128
-18.463551 85.839783 956.06287 0 0 128
-18.461372 86.559853 955.94403 0 0 128
-18.460466 87.284775 955.89569 0 0 128
-18.459038 88.007576 955.82867 0 0 128
-18.457922 88.731003 955.77338 0 0 128
-18.457937 89.462372 955.77582 0 0 132
-18.458479 90.194633 955.83185 0 0 132
-18.561401 91.442833 961.15948 255 140 0
-18.58173 92.27298 962.22083 255 56 0
-18.605124 93.109627 963.33539 255 20 0
-18.626688 93.954041 964.4317 255 4 0
-18.225847 -88.94442 982.56409 0 0 128
-18.222906 -88.181396 982.44025 0 0 128
-18.220488 -87.418861 982.31506 0 0 128
-18.217922 -86.656296 982.19281 0 0 128
-18.215506 -85.894852 982.07269 0 0 128
-18.213377 -85.13343 981.95239 0 0 128
-18.211132 -84.372383 981.83221 0 0 128
-18.208851 -83.611687 981.71307 0 0 128
-18.206615 -82.851158 981.59277 0 0 128
-18.204319 -82.090828 981.47327 0 0 128
-18.202112 -81.330681 981.35559 0 0 128
-18.199835 -80.570847 981.23798 0 0 128
-18.197607 -79.810867 981.12036 0 0 128
-18.195507 -79.051346 981.00482 0 0 128
-18.193384 -78.291695 980.88934 0 0 128
-18.191212 -77.532707 980.77643 0 0 128
-18.189238 -76.774147 980.66779 0 0 128
-18.187159 -76.015938 980.55725 0 0 128
-18.185125 -75.258308 980.44916 0 0 128
-18.182964 -74.499977 980.34058 0 0 128
-18.180996 -73.743935 980.23834 0 0 128
-18.179117 -72.987328 980.13666 0 0 128
-18.177059 -72.22963 980.03271 0 0 128
-18.175192 -71.474632 979.94257 0 0 128
-18.173512 -70.717567 979.84937 0 0 128
-18.171429 -69.960464 979.74127 0 0 128
-18.170095 -69.205177 979.67157 0 0 128
-18.170156 -68.448112 979.67639 0 0 128
-18.168964 -67.685318 979.60767 0 0 128
-18.172798 -66.940285 979.81207 0 0 128
-18.177071 -66.212029 980.0473 0 0 128
-18.184473 -65.481178 980.45129 0 0 128
-18.21092 -64.867447 981.89532 0 0 128
-18.212694 -64.117798 981.99835 0 0 128
-18.214834 -63.378674 982.12018 0 0 128
-18.216854 -62.636669 982.2301 0 0 128
-18.218307 -61.887344 982.30554 0 0 128
-18.221176 -61.154694 982.46869 0 0 128
-18.22151 -60.403782 982.48651 0 0 128
-18.222536 -59.655804 982.54462 0 0 128
-18.223349 -58.90506 982.59052 0 0 128
-18.222811 -58.149597 982.56128 0 0 128
-18.221546 -57.395741 982.49066 0 0 128
-18.220592 -56.647453 982.43964 0 0 128
-18.219912 -55.895226 982.40454 0 0 128
-18.218834 -55.13192 982.33636 0 0 128
-18.151264 -54.189873 978.69647 0 0 128
-18.136784 -53.398159 977.91608 0 0 128
-18.13278 -52.633205 977.69727 0 0 128
-18.143225 -51.924049 978.26642 0 0 128
-18.141266 -51.175201 978.16821 0 0 128
-18.136879 -50.411491 977.93622 0 0 128
-18.128319 -49.636059 977.47614 0 0 128
-18.124743 -48.883926 977.28107 0 0 128
-18.118994 -48.117805 976.97675 0 0 128
-18.114765 -47.358242 976.75116 0 0 128
-18.110645 -46.601028 976.52667 0 0 128
-18.105555 -45.842495 976.25861 0 0 128
-18.101622 -45.089241 976.04498 0 0 128
-18.098631 -44.33646 975.89014 0 0 128
-18.095705 -43.588501 975.73712 0 0 128
-18.093124 -42.839752 975.6026 0 0 128
-18.090403 -42.089867 975.46265 0 0 128
-18.087931 -41.337833 975.32483 0 0 128
-18.085497 -40.586006 975.19458 0 0 128
-18.083046 -39.834549 975.06183 0 0 128
-18.080654 -39.084648 974.93365 0 0 128
-18.078268 -38.334007 974.81024 0 0 128
-18.076027 -37.58432 974.69128 0 0 128
-18.073812 -36.834526 974.573 0 0 128
-18.071644 -36.085033 974.4574 0 0 128
-18.069534 -35.335083 974.34326 0 0 128
-18.067377 -34.585468 974.23041 0 0 128
-18.065266 -33.835835 974.12115 0 0 128
-18.063133 -33.086292 974.01007 0 0 128
-18.06119 -32.33337 973.90247 0 0 128
-18.059439 -31.580488 973.80212 0 0 128
-18.058226 -30.800745 973.72522 0 0 128
-18.056572 -29.981106 973.61981 0 0 128
-18.056913 -29.140806 973.60449 128 0 0
-18.397806 -30.150202 992.06219 18 255 238
-18.380548 -29.203545 991.07166 0 216 255
-18.369616 -28.403097 990.44836 0 132 255
-18.368502 -27.623928 990.36365 2 255 254
-18.370352 -26.840988 990.45001 42 255 214
-18.373468 -26.061676 990.58984 255 232 0
-18.384892 -25.301628 991.18219 255 184 0
-18.384041 -24.481178 991.10889 255 156 0
-18.38228 -23.694298 990.9549 255 144 0
-18.380831 -22.902514 990.81677 255 120 0
-18.379694 -22.120148 990.69055 255 52 0
-18.378786 -21.349403 990.57678 255 40 0
-18.32127 -20.664965 987.42651 26 255 230
-18.317118 -19.934242 987.15106 255 20 0
-18.31262 -19.215776 986.86346 255 88 0
-18.196119 -17.643406 980.55463 0 40 255
-18.198244 -16.916414 980.62988 0 60 255
-18.199703 -16.182474 980.68573 0 92 255
-18.20043 -15.455275 980.70013 0 124 255
-18.200024 -14.73804 980.66498 0 164 255
-18.200785 -14.022231 980.67383 0 196 255
-18.248055 -13.115676 983.20605 0 0 136
-18.25321 -12.367008 983.461 0 0 136
-18.257814 -11.619245 983.70306 0 0 136
-18.262182 -10.87118 983.94324 0 0 136
-18.266323 -10.123171 984.17151 0 0 136
-18.270304 -9.3742619 984.39447 0 0 136
-18.391041 -8.5984421 990.91125 0 0 132
-18.389456 -7.8468752 990.82758 0 0 140
-18.380434 -7.084795 990.34894 0 0 136
-18.369184 -6.3784132 989.73444 0 0 136
-18.366318 -5.6142097 989.58704 0 0 136
-18.358793 -4.873888 989.17926 0 0 136
-18.34971 -4.1748981 988.68048 0 0 136
-18.340078 -3.4299915 988.15717 0 0 136
-18.336309 -2.6276639 987.9549 0 0 136
-18.33065 -1.8547791 987.65704 0 0 136
-18.329462 -1.0513437 987.60034 0 0 136
-18.324764 -0.30378869 987.34558 0 0 136
-18.320436 0.43675417 987.117 0 0 136
-18.316658 1.1930866 986.92236 0 0 136
-18.316343 1.8901037 986.90051 0 0 140
-18.315546 2.6464534 986.85168 0 0 136
-18.313673 3.392729 986.74176 0 0 140
-18.311773 4.1307073 986.64331 0 0 136
-18.309877 4.8920774 986.53387 0 0 136
-18.309116 5.6348715 986.49664 0 0 136
-18.308832 6.3881154 986.48615 0 0 136
-18.307192 7.182323 986.40753 0 0 132
-18.307316 7.9605346 986.41528 0 0 136
-18.310024 8.6982822 986.55524 0 0 128
-18.314217 9.4479761 986.77698 0 0 132
-18.316265 10.215389 986.88959 0 0 132
-18.306078 10.846004 986.30823 0 0 140
-18.305933 11.582373 986.28979 0 0 140
-18.231213 12.40332 982.30774 0 0 136
-18.221954 13.147789 981.82422 0 0 136
-18.21242 13.890192 981.32605 0 0 136
-18.202337 14.631705 980.80017 0 0 136
-18.191895 15.374006 980.26184 0 0 136
-18.181311 16.11268 979.71283 0 0 136
-18.170137 16.84977 979.1424 0 0 136
-18.159521 17.586147 978.59821 0 0 136
-18.14826 18.322823 978.02191 0 0 136
-18.137234 19.057741 977.4624 0 0 136
-18.086452 19.738667 974.75348 0 172 255
-18.080353 20.472378 974.45343 0 140 255
-18.076801 21.215778 974.30103 0 0 140
-18.073746 21.969812 974.17816 0 0 140
-18.070251 22.706472 974.02869 0 0 136
-18.070414 23.452221 974.0741 0 0 136
-18.070751 24.195185 974.1369 0 0 132
-18.070829 24.936861 974.17194 0 0 132
-18.071075 25.682459 974.22314 0 0 132
-18.071321 26.429546 974.28125 0 0 128
-18.072161 27.1784 974.34753 0 0 128
-18.072424 27.929607 974.39886 0 0 128
-18.074644 28.673143 974.52777 0 0 128
-18.076025 29.430931 974.63159 0 0 128
-18.078075 30.173071 974.75897 0 0 128
-18.080244 30.931559 974.89899 0 0 128
-18.082506 31.654751 975.01025 0 0 128
-17.884197 31.987793 964.29425 0 0 128
-17.882948 32.760185 964.25616 0 0 128
-17.879663 33.505199 964.08728 0 0 128
-17.877474 34.24276 963.97418 0 0 128
-17.875738 34.98288 963.89044 0 0 128
-17.874046 35.707123 963.80176 0 0 128
-17.872837 36.445217 963.73438 0 0 128
-17.870924 37.182537 963.6355 0 0 128
-17.868551 37.918453 963.5127 0 0 128
-17.866455 38.651554 963.39697 0 0 128
-17.864294 39.383316 963.28613 0 0 128
-17.862154 40.114552 963.17108 0 0 128
-17.860085 40.845837 963.05884 0 0 128
-17.85804 41.576481 962.94781 0 0 128
-17.85615 42.307114 962.83667 0 0 128
-17.854208 43.037544 962.7262 0 0 128
-17.851904 43.770061 962.60559 0 0 128
-17.849756 44.503769 962.48767 0 0 128
-17.847511 45.235306 962.36292 0 0 128
-17.845203 45.967869 962.24176 0 0 128
-17.843008 46.697182 962.12164 0 0 128
-17.840742 47.428043 962.00165 0 0 128
-17.83848 48.161976 961.88043 0 0 128
-17.836031 48.893375 961.74341 0 0 128
-17.833551 49.621883 961.61188 0 0 128
-17.831285 50.345188 961.48474 0 0 128
-17.828384 51.071682 961.32727 0 0 128
-17.825209 51.805923 961.1593 0 0 128
-17.823046 52.528912 961.03955 0 0 128
-17.819902 53.25618 960.87573 0 0 128
-17.817482 53.987328 960.74164 0 0 128
-17.814409 54.708157 960.56909 0 0 128
-17.813448 55.427864 960.50916 0 0 128
-17.811975 56.144024 960.4176 0 0 128
-17.81049 56.871582 960.33398 0 0 128
-17.808987 57.594589 960.25372 0 0 128
-17.808014 58.312824 960.18347 0 0 128
-17.80645 59.040417 960.0954 0 0 128
-17.804838 59.76646 960.0022 0 0 128
-17.803122 60.498924 959.9057 0 0 128
-17.801504 61.229584 959.81738 0 0 128
-17.800219 61.953465 959.74463 0 0 128
-17.798437 62.684177 959.64117 0 0 128
-17.796766 63.414055 959.54333 0 0 128
-17.795256 64.145561 959.4577 0 0 128
-17.793301 64.879761 959.36151 0 0 128
-17.791279 65.61145 959.26282 0 0 128
-17.789324 66.336281 959.1427 0 0 128
-17.787079 67.057243 959.01239 0 0 128
-17.785044 67.780777 958.89362 0 0 128
-17.782915 68.504555 958.78015 0 0 128
-17.780827 69.227371 958.66852 0 0 128
-17.778627 69.949844 958.55865 0 0 128
-17.776976 70.674026 958.45435 0 0 128
-17.775146 71.398567 958.35297 0 0 128
-17.773106 72.123238 958.25073 0 0 128
-17.771339 72.847397 958.14526 0 0 128
-17.769453 73.571579 958.03864 0 0 128
-17.767422 74.294022 957.93225 0 0 128
-17.765255 75.017319 957.82263 0 0 128
-17.763247 75.740723 957.71375 0 0 128
-17.761349 76.463928 957.60382 0 0 128
-17.759195 77.187546 957.49176 0 0 128
-17.757259 77.909935 957.38123 0 0 128
-17.755527 78.632172 957.26886 0 0 128
-17.753357 79.354225 957.15674 0 0 128
-17.751266 80.076622 957.04437 0 0 128
-17.749315 80.798363 956.92883 0 0 128
-17.747416 81.520935 956.82581 0 0 128
-17.745638 82.243744 956.72827 0 0 128
-17.743763 82.9655 956.62024 0 0 128
-17.741856 83.687279 956.51447 0 0 128
-17.740192 84.408867 956.40808 0 0 128
-17.738197 85.130257 956.29346 0 0 128
-17.736845 85.852776 956.21057 0 0 128
-17.735228 86.576027 956.12292 0 0 128
-17.73292 87.293915 955.9845 0 0 128
-17.732231 88.019127 955.94727 0 0 128
-17.731853 88.74498 955.93628 0 0 132
-17.732565 89.476562 955.9696 0 0 132
-17.733995 90.213608 956.05072 0 0 132
-17.829838 91.45414 961.27069 255 148 0
-17.851152 92.294357 962.4375 255 36 0
-17.874243 93.128235 963.56671 255 32 0
-17.895399 93.97657 964.65729 255 40 0
-17.478764 -88.961411 982.72974 0 0 128
-17.476131 -88.197029 982.6051 0 0 128
-17.473724 -87.433884 982.48022 0 0 128
-17.471416 -86.671074 982.35553 0 0 128
-17.469082 -85.908989 982.23413 0 0 128
-17.467007 -85.147079 982.11267 0 0 128
-17.4648 -84.385994 981.9928 0 0 128
-17.462679 -83.625076 981.87219 0 0 128
-17.460636 -82.864632 981.75366 0 0 128
-17.458397 -82.104103 981.63452 0 0 128
-17.456131 -81.343933 981.51575 0 0 128
-17.454098 -80.583763 981.39777 0 0 128
-17.451981 -79.823517 981.28088 0 0 128
-17.449959 -79.064125 981.16492 0 0 128
-17.447847 -78.304504 981.05109 0 0 128
-17.44586 -77.545372 980.93896 0 0 128
-17.443935 -76.787048 980.83093 0 0 128
-17.44187 -76.028336 980.72052 0 0 128
-17.439924 -75.270271 980.6106 0 0 128
-17.437922 -74.51239 980.5047 0 0 128
-17.436178 -73.755852 980.40546 0 0 128
-17.434479 -73.000023 980.30902 0 0 128
-17.432724 -72.242645 980.21692 0 0 128
-17.430914 -71.485435 980.12524 0 0 128
-17.429306 -70.726181 980.03357 0 0 128
-17.428314 -69.969246 979.97571 0 0 128
-17.428492 -69.213844 979.98639 0 0 128
-17.429974 -68.464012 980.07068 0 0 128
-17.437029 -67.738747 980.46252 0 0 128
-17.44009 -66.999931 980.64526 0 0 128
-17.441898 -66.247314 980.75159 0 0 128
-17.467365 -65.639465 982.20148 0 0 128
-17.470922 -64.897583 982.40173 0 0 128
-17.475485 -64.167656 982.67096 0 0 128
-17.478073 -63.424099 982.81952 0 0 128
-17.479479 -62.675686 982.89557 0 0 128
-17.481493 -61.93335 983.00983 0 0 128
-17.483648 -61.189663 983.13208 0 0 128
-17.484966 -60.447292 983.20703 0 0 128
-17.486401 -59.698635 983.29425 0 0 128
-17.487564 -58.948269 983.35669 0 0 128
-17.486816 -58.19466 983.31805 0 0 128
-17.485962 -57.443165 983.26984 0 0 128
-17.486807 -56.697842 983.31866 0 0 128
-17.486752 -55.945808 983.31329 0 0 128
-17.485579 -55.18259 983.2453 0 0 128
-17.487095 -54.442112 983.33264 0 0 128
-17.453011 -53.585762 981.42206 0 0 128
-17.447433 -52.823597 981.10809 0 0 128
-17.412945 -51.980053 979.16919 0 0 128
-17.407326 -51.216606 978.8559 0 0 128
-17.40011 -50.43808 978.45367 0 0 128
-17.3944 -49.676083 978.13843 0 0 128
-17.385798 -48.903133 977.6521 0 0 128
-17.379492 -48.136414 977.30396 0 0 128
-17.374846 -47.373234 977.04108 0 0 128
-17.370792 -46.616745 976.81604 0 0 128
-17.366852 -45.857025 976.5932 0 0 128
-17.36171 -45.099243 976.30499 0 0 128
-17.358269 -44.346073 976.11865 0 0 128
-17.355318 -43.596195 975.95087 0 0 128
-17.352047 -42.846218 975.77393 0 0 128
-17.349232 -42.096539 975.62366 0 0 128
-17.34696 -41.345745 975.49384 0 0 128
-17.344584 -40.593613 975.35864 0 0 128
-17.342077 -39.841545 975.22162 0 0 128
-17.33979 -39.090382 975.09222 0 0 128
-17.337475 -38.340725 974.96515 0 0 128
-17.335283 -37.590672 974.84387 0 0 128
-17.333099 -36.840488 974.72363 0 0 128
-17.331015 -36.090637 974.60754 0 0 128
-17.328861 -35.34058 974.49078 0 0 128
-17.326914 -34.590942 974.38013 0 0 128
-17.324903 -33.840542 974.26752 0 0 128
-17.322884 -33.091251 974.15894 0 0 128
-17.321003 -32.337254 974.0578 0 0 128
-17.319433 -31.576347 973.96539 0 0 128
-17.318045 -30.786346 973.87994 0 0 128
-17.316725 -29.963209 973.76062 128 0 0
-17.670258 -30.902971 993.71649 66 255 190
-17.668724 -30.092348 993.6189 158 255 98
-17.65098 -29.232252 992.5451 6 255 250
-17.636707 -28.381741 991.71454 0 240 255
-17.62726 -27.591413 991.15668 106 255 150
-17.630314 -26.821039 991.31488 178 255 78
-17.639748 -26.087519 991.8139 255 204 0
-17.636751 -25.233362 991.63196 255 192 0
-17.633442 -24.422895 991.39044 255 144 0
-17.632168 -23.641603 991.25494 255 60 0
-17.632029 -22.853462 991.18262 240 0 0
-17.630835 -22.076996 991.05206 172 0 0
-17.632196 -21.307455 991.06458 128 0 0
-17.570164 -20.615002 987.51764 190 255 66
-17.569977 -19.863909 987.45825 255 196 0
-17.565554 -19.105696 987.16052 255 100 0
-17.451048 -17.651886 980.6908 0 76 255
-17.453382 -16.931843 980.78571 0 92 255
-17.454218 -16.200264 980.81122 0 132 255
-17.4548 -15.491014 980.81927 0 172 255
-17.455854 -14.786024 980.85999 0 200 255
-17.501699 -13.86983 983.41595 0 0 136
-17.506886 -13.121226 983.68225 0 0 136
-17.511551 -12.373999 983.93469 0 0 136
-17.516203 -11.625344 984.18909 0 0 136
-17.520786 -10.876756 984.45038 0 0 136
-17.524794 -10.127563 984.68433 0 0 136
-17.635031 -9.3295221 990.90466 0 0 136
-17.630323 -8.6111488 990.63794 0 0 132
-17.631138 -7.8497601 990.67969 0 0 140
-17.621468 -7.0876088 990.14313 0 0 136
-17.612307 -6.379858 989.62524 0 0 132
-17.608829 -5.6093993 989.44238 0 0 136
-17.601885 -4.870038 989.04846 0 0 136
-17.591778 -4.151536 988.47412 0 0 132
-17.582077 -3.4055476 987.92413 0 0 136
-17.577969 -2.6107814 987.69977 0 0 136
-17.571337 -1.8541611 987.33203 0 0 136
-17.570141 -1.0827221 987.26318 0 0 136
-17.565241 -0.3388806 986.9881 0 0 136
-17.561693 0.43409252 986.79468 0 0 136
-17.558449 1.1904674 986.62 0 0 136
-17.558641 1.8955286 986.61993 0 0 140
-17.556816 2.6532526 986.51776 0 0 136
-17.555153 3.4007294 986.42236 0 0 140
-17.553064 4.1461182 986.29828 0 0 136
-17.550091 4.8924551 986.12958 0 0 136
-17.550949 5.6425281 986.1806 0 0 136
-17.550993 6.39288 986.17999 0 0 136
-17.551792 7.1489477 986.22931 0 0 136
-17.55064 7.9093461 986.16797 0 0 136
-17.552452 8.6875095 986.27106 0 0 132
-17.551453 9.4193525 986.20465 0 0 132
-17.549835 10.154539 986.10352 0 0 136
-17.552591 10.885703 986.25159 0 0 136
-17.554598 11.615348 986.35547 0 0 136
-17.558386 12.361948 986.56348 0 0 136
-17.557152 13.059921 986.48352 0 0 128
-17.557428 13.730254 986.47937 0 0 148
-17.547989 14.414783 985.93726 0 0 140
-17.455725 15.383739 980.883 0 0 136
-17.445608 16.122992 980.33582 0 0 136
-17.435255 16.862421 979.77826 0 0 136
-17.424612 17.597956 979.20947 0 0 136
-17.413782 18.334749 978.63184 0 0 136
-17.403135 19.070232 978.07355 0 0 136
-17.391949 19.805239 977.47015 0 0 136
-17.338234 20.477718 974.48187 0 216 255
-17.334032 21.231289 974.29541 0 156 255
-17.333128 21.972485 974.28088 0 0 136
-17.329277 22.714363 974.10449 0 0 136
-17.328592 23.456734 974.11108 0 0 136
-17.328804 24.198208 974.16968 0 0 132
-17.329309 24.940104 974.23322 0 0 132
-17.329758 25.684174 974.29858 0 0 132
-17.3302 26.432491 974.35699 0 0 132
-17.330662 27.178312 974.42627 0 0 128
-17.331322 27.928143 974.49866 0 0 128
-17.331856 28.680035 974.55768 0 0 128
-17.333258 29.43148 974.66058 0 0 128
-17.335096 30.175661 974.77869 0 0 128
-17.336313 30.937542 974.87482 0 0 128
-17.339043 31.658827 975.034 0 0 128
-17.342567 32.399673 975.22961 0 0 132
-17.150389 32.752949 964.41754 0 0 128
-17.14794 33.501488 964.2854 0 0 128
-17.145185 34.239643 964.13641 0 0 128
-17.1432 34.976635 964.03479 0 0 128
-17.141436 35.716698 963.94281 0 0 128
-17.140394 36.444397 963.88647 0 0 128
-17.138588 37.18771 963.78693 0 0 128
-17.136314 37.922764 963.66473 0 0 128
-17.134315 38.657585 963.55365 0 0 128
-17.132345 39.389992 963.44629 0 0 128
-17.130211 40.121162 963.3302 0 0 128
-17.128248 40.852589 963.21619 0 0 128
-17.126341 41.583595 963.10541 0 0 128
-17.124458 42.314289 962.99408 0 0 128
-17.122587 43.044716 962.88226 0 0 128
-17.120554 43.775471 962.7702 0 0 128
-17.118391 44.508438 962.64557 0 0 128
-17.116255 45.240772 962.52344 0 0 128
-17.114136 45.971882 962.40674 0 0 128
-17.111982 46.702732 962.27863 0 0 128
-17.109869 47.433353 962.1626 0 0 128
-17.107691 48.164722 962.04193 0 0 128
-17.105499 48.89753 961.91418 0 0 128
-17.102886 49.626617 961.771 0 0 128
-17.100571 50.348522 961.63446 0 0 128
-17.098358 51.081093 961.51154 0 0 128
-17.09622 51.806225 961.38525 0 0 128
-17.09338 52.538689 961.23151 0 0 128
-17.090899 53.259563 961.08771 0 0 128
-17.08885 53.986012 960.96649 0 0 128
-17.087101 54.712269 960.86322 0 0 128
-17.085276 55.431561 960.75409 0 0 128
-17.083904 56.157326 960.66718 0 0 128
-17.082195 56.879261 960.57025 0 0 128
-17.080555 57.602875 960.47577 0 0 128
-17.078783 58.330372 960.37109 0 0 128
-17.077188 59.053558 960.27161 0 0 128
-17.07559 59.780758 960.17657 0 0 128
-17.073757 60.513279 960.07233 0 0 128
-17.072384 61.23893 959.98724 0 0 128
-17.070711 61.96587 959.89294 0 0 128
-17.069027 62.693768 959.7984 0 0 128
-17.06768 63.428272 959.70367 0 0 128
-17.066046 64.158813 959.60785 0 0 128
-17.064278 64.894379 959.52148 0 0 128
-17.062283 65.621368 959.40967 0 0 128
-17.060286 66.34465 959.28534 0 0 128
-17.058146 67.066414 959.15955 0 0 128
-17.056314 67.790855 959.04779 0 0 128
-17.054279 68.514481 958.93512 0 0 128
-17.052444 69.238228 958.82611 0 0 128
-17.050413 69.961761 958.72003 0 0 128
-17.04847 70.686028 958.61383 0 0 128
-17.046904 71.410774 958.51093 0 0 128
-17.045069 72.135094 958.40851 0 0 128
-17.043375 72.85965 958.30353 0 0 128
-17.041536 73.583427 958.19763 0 0 128
-17.039539 74.306602 958.08917 0 0 128
-17.03747 75.029831 957.97748 0 0 128
-17.03548 75.753227 957.8667 0 0 128
-17.033457 76.476082 957.75525 0 0 128
-17.031633 77.19912 957.64429 0 0 128
-17.029638 77.922043 957.53076 0 0 128
-17.027811 78.644608 957.42432 0 0 128
-17.025906 79.366959 957.31055 0 0 128
-17.023809 80.089417 957.19769 0 0 128
-17.021944 80.811478 957.08282 0 0 128
-17.020027 81.533241 956.97095 0 0 128
-17.01852 82.256882 956.87537 0 0 128
-17.016695 82.978889 956.77191 0 0 128
-17.014854 83.700661 956.66577 0 0 128
-17.013151 84.422333 956.56116 0 0 128
-17.011448 85.143913 956.45288 0 0 128
-17.009695 85.865402 956.35449 0 0 128
-17.008215 86.587181 956.26031 0 0 128
-17.00692 87.309998 956.18024 0 0 128
-17.0058 88.033188 956.10889 0 0 128
-17.00293 88.745926 955.93628 0 0 128
-17.002466 89.473839 955.92139 0 0 132
-17.007097 90.22506 956.18823 0 0 132
-17.008688 90.965302 956.30273 0 0 128
-17.120911 92.310211 962.61761 252 0 0
-17.143028 93.152687 963.81061 248 0 0
-17.164295 94.00042 964.89838 128 0 0
-16.731771 -88.97699 982.90405 0 0 128
-16.729267 -88.211349 982.77081 0 0 128
-16.726871 -87.448807 982.6463 0 0 128
-16.724543 -86.685814 982.5199 0 0 128
-16.722261 -85.923393 982.39636 0 0 128
-16.720261 -85.161568 982.27576 0 0 128
-16.718111 -84.399872 982.1543 0 0 128
-16.716131 -83.638771 982.03387 0 0 128
-16.714144 -82.878006 981.91449 0 0 128
-16.712173 -82.117516 981.79608 0 0 128
-16.710196 -81.357307 981.67743 0 0 128
-16.708174 -80.596664 981.55878 0 0 128
-16.706106 -79.836418 981.44073 0 0 128
-16.704073 -79.07692 981.32556 0 0 128
-16.702139 -78.317284 981.21228 0 0 128
-16.700321 -77.558121 981.10266 0 0 128
-16.698437 -76.799583 980.99207 0 0 128
-16.696459 -76.040764 980.88397 0 0 128
-16.694504 -75.282822 980.776 0 0 128
-16.692709 -74.525185 980.6723 0 0 128
-16.690933 -73.768471 980.57043 0 0 128
-16.689508 -73.011444 980.4856 0 0 128
-16.687908 -72.254181 980.39386 0 0 128
-16.686583 -71.494713 980.31921 0 0 128
-16.685616 -70.729004 980.25604 0 0 128
-16.686192 -69.985336 980.29431 0 0 128
-16.69198 -69.252594 980.64209 0 0 128
-16.697147 -68.5308 980.94659 0 0 128
-16.698305 -67.780586 981.01111 0 0 128
-16.699076 -67.008766 981.0531 0 0 128
-16.70215 -66.278389 981.24475 0 0 128
-16.72662 -65.660812 982.69806 0 0 128
-16.731339 -64.935509 982.9798 0 0 128
-16.734451 -64.190704 983.16388 0 0 128
-16.737202 -63.446777 983.33325 0 0 128
-16.740097 -62.708969 983.50739 0 0 128
-16.742657 -61.968155 983.6568 0 0 128
-16.744873 -61.23325 983.79327 0 0 128
-16.745907 -60.485764 983.85675 0 0 128
-16.748671 -59.751522 984.02039 0 0 128
-16.749622 -58.994148 984.07806 0 0 128
-16.749706 -58.248238 984.0882 0 0 128
-16.750824 -57.496136 984.15546 0 0 128
-16.750992 -56.747559 984.16486 0 0 128
-16.751602 -56.001144 984.2002 0 0 128
-16.751106 -55.250355 984.16895 0 0 128
-16.752945 -54.509155 984.2785 0 0 128
-16.716703 -53.62751 982.14801 0 0 128
-16.715092 -52.874397 982.05066 0 0 128
-16.674892 -52.015186 979.69244 0 0 128
-16.668133 -51.237282 979.30243 0 0 128
-16.66231 -50.467159 978.96613 0 0 128
-16.657486 -49.706387 978.68359 0 0 128
-16.650631 -48.937851 978.28186 0 0 128
-16.641495 -48.162827 977.74786 0 0 128
-16.635132 -47.39233 977.37244 0 0 128
-16.630558 -46.630932 977.10321 0 0 128
-16.626991 -45.870209 976.89111 0 0 128
-16.622019 -45.110779 976.6015 0 0 128
-16.618013 -44.355423 976.367 0 0 128
-16.614601 -43.603477 976.16693 0 0 128
-16.610922 -42.853138 975.96326 0 0 128
-16.607935 -42.103054 975.79333 0 0 128
-16.605516 -41.352077 975.65234 0 0 128
-16.603184 -40.600792 975.51624 0 0 128
-16.600769 -39.848019 975.37561 0 0 128
-16.598623 -39.096764 975.24609 0 0 128
-16.596413 -38.346622 975.11932 0 0 128
-16.59421 -37.596546 974.99365 0 0 128
-16.592142 -36.846333 974.87213 0 0 128
-16.590076 -36.096275 974.7558 0 0 128
-16.58819 -35.345837 974.64075 0 0 128
-16.58618 -34.596092 974.52698 0 0 128
-16.584158 -33.845165 974.41553 0 0 128
-16.582348 -33.094353 974.30933 0 0 128
-16.580425 -32.338802 974.20526 0 0 128
-16.57918 -31.567904 974.12848 0 0 128
-16.578241 -30.766533 974.05634 128 0 0
-16.577734 -29.953814 973.98706 128 0 0
-16.877987 -30.691866 991.70355 0 8 255
-16.882296 -29.886026 991.90009 0 80 255
-16.878111 -29.124508 991.61969 0 252 255
-16.876207 -28.338648 991.46436 70 255 186
-16.877394 -27.543198 991.50873 154 255 102
-16.885447 -26.777897 991.95038 226 255 30
-16.890659 -26.015886 992.25745 255 244 0
-16.88876 -25.188053 992.09613 255 204 0
-16.886169 -24.39049 991.89203 255 192 0
-16.884377 -23.58989 991.72205 255 188 0
-16.880602 -22.794207 991.42963 255 172 0
-16.881104 -22.03793 991.39893 164 0 0
-16.882832 -21.268538 991.4339 132 0 0
-16.88529 -20.491539 991.521 128 0 0
-16.882891 -19.711987 991.33014 128 0 0
-16.705486 -18.39142 980.86761 0 64 255
-16.707026 -17.643438 980.91882 0 92 255
-16.706888 -16.940351 980.87097 0 140 255
-16.708872 -16.220577 980.95593 0 172 255
-16.711351 -15.515199 981.08459 0 188 255
-16.754272 -14.623455 983.58734 0 0 136
-16.759327 -13.875813 983.85284 0 0 136
-16.764328 -13.127173 984.13721 0 0 136
-16.769121 -12.379454 984.40625 0 0 136
-16.773682 -11.630839 984.67596 0 0 136
-16.778055 -10.883023 984.9411 0 0 136
-16.886011 -10.102668 991.29596 0 0 132
-16.876848 -9.3481655 990.76471 0 0 132
-16.870489 -8.6074286 990.39301 0 0 132
-16.872093 -7.8567452 990.48401 0 0 144
-16.863644 -7.1030102 989.99176 0 0 136
-16.855473 -6.3915486 989.508 0 0 136
-16.849785 -5.6302314 989.17963 0 0 136
-16.842319 -4.8678341 988.745 0 0 136
-16.834654 -4.1357183 988.28918 0 0 132
-16.824997 -3.3903251 987.72778 0 0 136
-16.820829 -2.6154027 987.48651 0 0 136
-16.814981 -1.8490713 987.14783 0 0 136
-16.812401 -1.0950823 986.99329 0 0 136
-16.808348 -0.33026728 986.75708 0 0 136
-16.804453 0.42224118 986.5282 0 0 136
-16.801636 1.1726631 986.36523 0 0 136
-16.80031 1.9101558 986.28064 0 0 140
-16.799299 2.6510689 986.22302 0 0 136
-16.797274 3.4011734 986.1051 0 0 140
-16.794628 4.1550465 985.9436 0 0 136
-16.79315 4.899754 985.85071 0 0 136
-16.793571 5.653018 985.88763 0 0 136
-16.794434 6.4050398 985.92969 0 0 136
-16.795103 7.1518407 985.96753 0 0 136
-16.796518 7.9042611 986.05206 0 0 136
-16.798502 8.6582384 986.17059 0 0 132
-16.798368 9.3932142 986.15466 0 0 136
-16.798649 10.159719 986.16766 0 0 136
-16.799503 10.886372 986.20325 0 0 136
-16.801199 11.657907 986.31097 0 0 136
-16.805506 12.397366 986.55585 0 0 132
-16.805838 13.125742 986.56836 0 0 132
-16.808079 13.781548 986.65784 0 0 140
-16.804943 14.483564 986.46106 0 0 148
-16.806803 15.234223 986.58923 0 0 148
-16.708555 16.133078 980.94141 0 0 136
-16.6984 16.871578 980.37115 0 0 136
-16.688395 17.609079 979.80908 0 0 136
-16.677837 18.346241 979.22455 0 0 136
-16.667038 19.08215 978.62225 0 0 136
-16.656273 19.817856 978.01813 0 0 136
-16.645624 20.55302 977.43585 0 0 136
-16.595352 21.237635 974.52191 0 200 255
-16.593948 21.987129 974.48608 0 120 255
-16.591316 22.722469 974.37097 0 0 136
-16.587427 23.451517 974.18207 0 0 136
-16.587185 24.199343 974.21588 0 0 132
-16.588326 24.943298 974.32159 0 0 132
-16.588474 25.686741 974.37158 0 0 132
-16.588705 26.434471 974.43195 0 0 132
-16.589151 27.180048 974.49567 0 0 128
-16.589565 27.929039 974.56482 0 0 128
-16.589907 28.680975 974.6236 0 0 128
-16.591137 29.431459 974.71472 0 0 128
-16.591967 30.18652 974.79926 0 0 128
-16.592869 30.937866 974.87317 0 0 128
-16.595936 31.657261 975.0614 0 0 128
-16.598652 32.420967 975.23975 0 0 128
-16.41782 32.761707 964.59412 0 0 128
-16.415056 33.509068 964.4469 0 0 128
-16.412756 34.246304 964.31927 0 0 128
-16.410614 34.977448 964.19446 0 0 128
-16.409012 35.717171 964.1076 0 0 128
-16.407963 36.445797 964.04449 0 0 128
-16.405886 37.194279 963.9364 0 0 128
-16.404028 37.927891 963.82379 0 0 128
-16.402107 38.662701 963.71246 0 0 128
-16.400175 39.397011 963.60168 0 0 128
-16.398226 40.127911 963.48914 0 0 128
-16.396214 40.859093 963.37396 0 0 128
-16.39443 41.590611 963.26221 0 0 128
-16.392502 42.321117 963.15039 0 0 128
-16.390652 43.051857 963.03888 0 0 128
-16.388884 43.782383 962.92804 0 0 128
-16.386948 44.513729 962.81305 0 0 128
-16.384846 45.246063 962.68622 0 0 128
-16.382664 45.977974 962.56134 0 0 128
-16.38073 46.70916 962.44635 0 0 128
-16.378716 47.438412 962.32172 0 0 128
-16.376747 48.168678 962.20282 0 0 128
-16.374649 48.901001 962.07678 0 0 128
-16.372341 49.631058 961.94598 0 0 128
-16.370108 50.360683 961.81824 0 0 128
-16.368055 51.086826 961.69348 0 0 128
-16.366068 51.812809 961.56897 0 0 128
-16.363768 52.540779 961.44086 0 0 128
-16.361565 53.265285 961.30164 0 0 128
-16.359509 53.994362 961.18121 0 0 128
-16.357519 54.71928 961.06036 0 0 128
-16.355864 55.44416 960.95349 0 0 128
-16.354305 56.169662 960.85638 0 0 128
-16.352407 56.892448 960.74634 0 0 128
-16.35075 57.617649 960.64362 0 0 128
-16.349199 58.340736 960.54694 0 0 128
-16.347631 59.067871 960.4483 0 0 128
-16.346006 59.793629 960.3468 0 0 128
-16.344238 60.527054 960.24493 0 0 128
-16.342722 61.250954 960.14886 0 0 128
-16.341238 61.979137 960.0553 0 0 128
-16.339491 62.709599 959.95978 0 0 128
-16.338051 63.439648 959.85913 0 0 128
-16.336704 64.175591 959.77802 0 0 128
-16.334892 64.905495 959.67255 0 0 128
-16.332918 65.629639 959.55182 0 0 128
-16.33086 66.351265 959.42456 0 0 128
-16.328995 67.076393 959.31342 0 0 128
-16.327253 67.80072 959.20245 0 0 128
-16.325556 68.525383 959.09485 0 0 128
-16.323557 69.249413 958.98645 0 0 128
-16.321886 69.974182 958.88239 0 0 128
-16.320044 70.698257 958.77698 0 0 128
-16.318283 71.422791 958.67084 0 0 128
-16.316643 72.147026 958.56744 0 0 128
-16.314888 72.870956 958.46313 0 0 128
-16.313198 73.595062 958.35577 0 0 128
-16.311419 74.318993 958.24377 0 0 128
-16.309433 75.042137 958.13049 0 0 128
-16.307364 75.7658 958.02014 0 0 128
-16.305403 76.488686 957.90833 0 0 128
-16.303596 77.211288 957.79498 0 0 128
-16.301588 77.933556 957.68158 0 0 128
-16.299959 78.656815 957.57074 0 0 128
-16.298073 79.379532 957.46472 0 0 128
-16.296293 80.102097 957.35248 0 0 128
-16.294243 80.824356 957.2356 0 0 128
-16.292526 81.546043 957.11957 0 0 128
-16.290873 82.268997 957.0174 0 0 128
-16.289268 82.991997 956.91962 0 0 128
-16.287548 83.713547 956.81427 0 0 128
-16.28591 84.435425 956.7088 0 0 128
-16.284256 85.157181 956.60352 0 0 128
-16.28236 85.879257 956.49152 0 0 128
-16.280993 86.599724 956.40283 0 0 128
-16.279709 87.322121 956.31775 0 0 128
-16.278629 88.045433 956.25226 0 0 128
-16.27817 88.77198 956.21661 0 0 128
-16.279417 89.50766 956.27728 0 0 128
-16.278637 90.236855 956.23523 0 0 132
-16.281588 90.98291 956.44543 0 0 128
-16.390057 92.323242 962.77869 244 0 0
-16.411964 93.176445 964.01794 255 24 0
-16.433392 94.03009 965.23718 232 0 0
-15.984406 -88.990631 983.0528 0 0 128
-15.981811 -88.225212 982.92566 0 0 128
-15.979766 -87.462517 982.80402 0 0 128
-15.977384 -86.699547 982.68066 0 0 128
-15.975291 -85.937569 982.55841 0 0 128
-15.973434 -85.175499 982.43707 0 0 128
-15.971412 -84.41362 982.3147 0 0 128
-15.969412 -83.652458 982.19513 0 0 128
-15.967505 -82.891586 982.07428 0 0 128
-15.965709 -82.130898 981.95605 0 0 128
-15.963755 -81.370415 981.83789 0 0 128
-15.961853 -80.609619 981.7196 0 0 128
-15.959894 -79.849213 981.60095 0 0 128
-15.958005 -79.089737 981.48669 0 0 128
-15.956225 -78.330025 981.37488 0 0 128
-15.95437 -77.571053 981.26434 0 0 128
-15.952538 -76.812271 981.15533 0 0 128
-15.950747 -76.05336 981.04675 0 0 128
-15.948926 -75.295105 980.94031 0 0 128
-15.947225 -74.537971 980.8374 0 0 128
-15.945617 -73.78067 980.73956 0 0 128
-15.944349 -73.025436 980.66296 0 0 128
-15.943319 -72.262131 980.59283 0 0 128
-15.943089 -71.504356 980.58142 0 0 128
-15.942483 -70.739182 980.53259 0 0 128
-15.946712 -70.015739 980.80829 0 0 128
-15.952395 -69.291534 981.16205 0 0 128
-15.954394 -68.553001 981.29211 0 0 128
-15.956486 -67.796318 981.40656 0 0 128
-15.960949 -67.073509 981.68878 0 0 128
-15.983041 -66.439056 983.065 0 0 128
-15.986572 -65.693443 983.28235 0 0 128
-15.991294 -64.96627 983.58014 0 0 128
-15.997625 -64.251678 983.97601 0 0 128
-16.000628 -63.511936 984.17078 0 0 128
-16.002745 -62.773663 984.30347 0 0 128
-16.003479 -62.023495 984.34937 0 0 128
-16.003878 -61.27438 984.37842 0 0 128
-16.008299 -60.540741 984.65094 0 0 128
-16.011204 -59.78772 984.82501 0 0 128
-16.016146 -59.074856 985.14886 0 0 128
-16.015787 -58.308655 985.1189 0 0 128
-16.016352 -57.562145 985.15338 0 0 128
-16.016127 -56.816925 985.14325 0 0 128
-16.016087 -56.062805 985.13617 0 0 128
-16.015137 -55.312683 985.08075 0 0 128
-16.006607 -54.4762 984.53394 0 0 128
-15.981845 -53.683094 983.03552 0 0 128
-15.979711 -52.925949 982.90717 0 0 128
-15.974407 -52.155891 982.57233 0 0 128
-15.929114 -51.266834 979.79419 0 0 128
-15.923521 -50.500786 979.4577 0 0 128
-15.918545 -49.730675 979.15198 0 0 128
-15.913774 -48.969925 978.86353 0 0 128
-15.906627 -48.202969 978.4281 0 0 128
-15.893317 -47.399715 977.60425 0 0 128
-15.889189 -46.641907 977.34937 0 0 128
-15.886885 -45.886826 977.20581 0 0 128
-15.882445 -45.127003 976.92627 0 0 128
-15.879608 -44.376587 976.75287 0 0 128
-15.874355 -43.615166 976.43695 0 0 128
-15.869659 -42.861752 976.15472 0 0 128
-15.866467 -42.110115 975.96979 0 0 128
-15.864071 -41.358192 975.8219 0 0 128
-15.861743 -40.60836 975.68268 0 0 128
-15.859337 -39.855137 975.53674 0 0 128
-15.857195 -39.103088 975.40033 0 0 128
-15.85508 -38.353146 975.27405 0 0 128
-15.852944 -37.602097 975.14539 0 0 128
-15.850886 -36.852139 975.02039 0 0 128
-15.84896 -36.101688 974.90112 0 0 128
-15.847027 -35.351501 974.7868 0 0 128
-15.845105 -34.600552 974.67114 0 0 128
-15.843267 -33.849735 974.56201 0 0 128
-15.841605 -33.094536 974.46265 0 0 128
-15.839902 -32.338074 974.36273 0 0 128
-16.165091 -33.199947 994.50122 178 255 78
-16.16868 -32.427837 994.68854 214 255 42
-16.107319 -31.374691 990.86151 0 0 160
-16.104031 -30.5564 990.60999 0 0 156
-16.118734 -29.82571 991.46613 0 88 255
-16.125387 -29.057276 991.82025 0 184 255
-16.125784 -28.261244 991.80975 114 255 142
-16.128826 -27.489031 991.97614 146 255 110
-16.134726 -26.750977 992.31067 255 224 0
-16.138103 -25.930952 992.48718 234 255 22
-16.137676 -25.130125 992.41589 255 236 0
-16.136452 -24.332962 992.28333 255 204 0
-16.134466 -23.53858 992.08618 255 188 0
-16.134447 -22.762047 992.01215 255 156 0
-16.134466 -21.976471 991.94861 168 0 0
-16.134378 -21.215181 991.87909 152 0 0
-16.136379 -20.449873 991.95398 128 0 0
-16.13541 -19.665359 991.84393 128 0 0
-15.96098 -18.419333 981.07239 0 84 255
-15.959815 -17.661745 980.96997 0 140 255
-15.96009 -16.946377 980.95868 0 184 255
-15.960471 -16.226421 980.93921 0 228 255
-16.005991 -15.375674 983.72168 0 0 136
-16.011021 -14.629365 983.99994 0 0 136
-16.016096 -13.881065 984.28442 0 0 136
-16.020943 -13.134294 984.56989 0 0 136
-16.025717 -12.385598 984.85925 0 0 136
-16.030039 -11.637236 985.13916 0 0 136
-16.134918 -10.874908 991.60236 0 0 136
-16.128056 -10.11692 991.1817 0 0 128
-16.119497 -9.3565044 990.66162 0 0 132
-16.113503 -8.610363 990.29376 0 0 140
-16.112612 -7.8815913 990.24402 0 0 148
-16.104887 -7.1198974 989.76868 0 0 140
-16.098148 -6.3915143 989.35205 0 0 140
-16.091627 -5.6321874 988.95337 0 0 140
-16.084221 -4.8774109 988.49774 0 0 136
-16.077566 -4.1269121 988.08972 0 0 136
-16.067924 -3.3814445 987.50165 0 0 136
-16.063042 -2.6104589 987.20709 0 0 136
-16.05773 -1.8479117 986.88782 0 0 136
-16.055441 -1.0895004 986.75043 0 0 136
-16.052017 -0.33839566 986.54071 0 0 136
-16.048389 0.41511416 986.31287 0 0 136
-16.045347 1.1624864 986.12555 0 0 136
-16.042942 1.9107349 985.97778 0 0 136
-16.041874 2.6573291 985.90845 0 0 136
-16.040573 3.4073341 985.82977 0 0 136
-16.039137 4.1586704 985.73792 0 0 136
-16.037928 4.9052544 985.65857 0 0 136
-16.037724 5.6567979 985.65308 0 0 136
-16.038612 6.4110641 985.70728 0 0 136
-16.039461 7.1633315 985.75726 0 0 136
-16.040291 7.9122782 985.7973 0 0 136
-16.042051 8.6679487 985.9126 0 0 136
-16.043976 9.4091806 986.02789 0 0 136
-16.045929 10.160727 986.13739 0 0 136
-16.047813 10.902797 986.24615 0 0 136
-16.050838 11.656498 986.42944 0 0 136
-16.054178 12.417109 986.63257 0 0 136
-16.057133 13.151348 986.80493 0 0 128
-16.058464 13.878903 986.87567 0 0 132
-16.059439 14.573569 986.91736 0 0 132
-16.059063 15.306836 986.8974 0 0 132
-15.970465 16.142591 981.5415 0 0 136
-15.960661 16.881769 980.96039 0 0 136
-15.950629 17.61986 980.37341 0 0 136
-15.94038 18.357677 979.77051 0 0 136
-15.930077 19.093716 979.16357 0 0 136
-15.919397 19.82756 978.5434 0 0 136
-15.908978 20.562674 977.94354 0 0 136
-15.89813 21.294678 977.31573 0 0 136
-15.852839 21.981836 974.58331 0 176 255
-15.851427 22.7229 974.54053 0 108 255
-15.849406 23.471495 974.45404 0 0 136
-15.84836 24.203785 974.42847 0 0 136
-15.84703 24.947166 974.39478 0 0 132
-15.847127 25.690041 974.44928 0 0 132
-15.847275 26.435032 974.50952 0 0 132
-15.847618 27.18124 974.57678 0 0 132
-15.847893 27.928616 974.63611 0 0 128
-15.848343 28.678066 974.7063 0 0 128
-15.848714 29.434742 974.77252 0 0 128
-15.84999 30.183065 974.88306 0 0 128
-15.850839 30.931641 974.94891 0 0 128
-15.852544 31.663204 975.07709 0 0 128
-15.854726 32.422974 975.23309 0 0 128
-15.683786 32.737171 964.68695 0 0 128
-15.681456 33.490093 964.55731 0 0 128
-15.67998 34.247921 964.48175 0 0 128
-15.678504 34.985268 964.40039 0 0 128
-15.6766 35.726032 964.29578 0 0 128
-15.674806 36.453373 964.18152 0 0 128
-15.673289 37.197823 964.1001 0 0 128
-15.671411 37.932976 963.98291 0 0 128
-15.66941 38.667759 963.86322 0 0 128
-15.667758 39.403572 963.76031 0 0 128
-15.665854 40.134411 963.64709 0 0 128
-15.663947 40.866173 963.53284 0 0 128
-15.662127 41.597565 963.41974 0 0 128
-15.660351 42.328037 963.30762 0 0 128
-15.658633 43.059059 963.19464 0 0 128
-15.656949 43.789627 963.08368 0 0 128
-15.655131 44.52029 962.97107 0 0 128
-15.653312 45.251419 962.8551 0 0 128
-15.651323 45.983513 962.73065 0 0 128
-15.649261 46.715214 962.60278 0 0 128
-15.647283 47.444633 962.48322 0 0 128
-15.645488 48.174988 962.36664 0 0 128
-15.643543 48.905064 962.24725 0 0 128
-15.641405 49.636452 962.12012 0 0 128
-15.639261 50.366085 961.98975 0 0 128
-15.637193 51.09185 961.86206 0 0 128
-15.635199 51.82037 961.73669 0 0 128
-15.633222 52.54311 961.61316 0 0 128
-15.631307 53.273647 961.49164 0 0 128
-15.629419 54.002449 961.3725 0 0 128
-15.627701 54.726154 961.25891 0 0 128
-15.62558 55.454117 961.13159 0 0 128
-15.623994 56.180672 961.02893 0 0 128
-15.622453 56.90115 960.92902 0 0 128
-15.620803 57.629158 960.82068 0 0 128
-15.619412 58.354294 960.72662 0 0 128
-15.61787 59.078453 960.62628 0 0 128
-15.616202 59.811882 960.52405 0 0 128
-15.614396 60.536674 960.40924 0 0 128
-15.612842 61.265366 960.30804 0 0 128
-15.611299 61.992805 960.21143 0 0 128
-15.609624 62.723537 960.11469 0 0 128
-15.608419 63.457123 960.02789 0 0 128
-15.606856 64.18866 959.93353 0 0 128
-15.605197 64.913879 959.81598 0 0 128
-15.603306 65.635887 959.69073 0 0 128
-15.601512 66.360725 959.57855 0 0 128
-15.599695 67.086311 959.46851 0 0 128
-15.598007 67.811684 959.36218 0 0 128
-15.59626 68.53598 959.25476 0 0 128
-15.594583 69.260918 959.14807 0 0 128
-15.593032 69.985382 959.04388 0 0 128
-15.591281 70.710388 958.93732 0 0 128
-15.589657 71.434906 958.83197 0 0 128
-15.587893 72.15873 958.72632 0 0 128
-15.586202 72.883163 958.61914 0 0 128
-15.584464 73.606743 958.50958 0 0 128
-15.582647 74.33049 958.39679 0 0 128
-15.580789 75.054626 958.28253 0 0 128
-15.579041 75.778343 958.17065 0 0 128
-15.577032 76.501411 958.05792 0 0 128
-15.575263 77.223877 957.94403 0 0 128
-15.573324 77.94574 957.82916 0 0 128
-15.571604 78.668686 957.71802 0 0 128
-15.569979 79.391647 957.61017 0 0 128
-15.568139 80.114441 957.50104 0 0 128
-15.566393 80.836838 957.38623 0 0 128
-15.564834 81.559341 957.27289 0 0 128
-15.563071 82.280792 957.15698 0 0 128
-15.561501 83.004158 957.06 0 0 128
-15.559914 83.726555 956.96045 0 0 128
-15.558304 84.448433 956.85645 0 0 128
-15.556841 85.170517 956.75549 0 0 128
-15.555453 85.892891 956.65784 0 0 128
-15.553292 86.610909 956.51947 0 0 128
-15.552522 87.33493 956.46045 0 0 128
-15.551143 88.057281 956.38184 0 0 128
-15.55076 88.784431 956.35431 0 0 128
-15.550937 89.512924 956.33832 0 0 132
-15.551509 90.248116 956.38599 0 0 132
-15.553184 90.984375 956.47095 0 0 128
-15.659294 92.341286 962.97644 208 0 0
-15.682506 93.199699 964.27527 128 0 0
-15.700926 94.046341 965.38086 128 0 0
-15.236661 -89.002792 983.20892 0 0 128
-15.234293 -88.238533 983.08325 0 0 128
-15.232227 -87.475609 982.95856 0 0 128
-15.230194 -86.713295 982.83972 0 0 128
-15.228165 -85.950798 982.71448 0 0 128
-15.226413 -85.188957 982.59332 0 0 128
-15.224539 -84.427597 982.47479 0 0 128
-15.222652 -83.665977 982.35419 0 0 128
-15.220866 -82.904999 982.23645 0 0 128
-15.218959 -82.144142 982.117 0 0 128
-15.217077 -81.383087 981.99774 0 0 128
-15.215179 -80.62236 981.87952 0 0 128
-15.213428 -79.862137 981.76221 0 0 128
-15.21171 -79.102432 981.64832 0 0 128
-15.20997 -78.342766 981.53613 0 0 128
-15.208158 -77.583603 981.42523 0 0 128
-15.206502 -76.824936 981.31946 0 0 128
-15.204728 -76.065948 981.20874 0 0 128
-15.203135 -75.308098 981.10736 0 0 128
-15.201615 -74.550461 981.00562 0 0 128
-15.200199 -73.792381 980.91638 0 0 128
-15.199123 -73.034805 980.8476 0 0 128
-15.199088 -72.273254 980.83148 0 0 128
-15.199108 -71.513977 980.83435 0 0 128
-15.202044 -70.776062 981.02484 0 0 128
-15.207308 -70.056 981.37415 0 0 128
-15.209762 -69.315887 981.5412 0 0 128
-15.213292 -68.581932 981.76886 0 0 128
-15.216702 -67.840942 981.98413 0 0 128
-15.236185 -67.197945 983.25397 0 0 128
-15.246893 -66.513809 983.96863 0 0 128
-15.253567 -65.800034 984.40112 0 0 128
-15.258488 -65.073601 984.72888 0 0 128
-15.263434 -64.35759 985.05579 0 0 128
-15.260581 -63.572475 984.86676 0 0 128
-15.264938 -62.838657 985.14661 0 0 128
-15.26901 -62.10762 985.40833 0 0 128
-15.271758 -61.358532 985.58746 0 0 128
-15.273888 -60.609444 985.72021 0 0 128
-15.278208 -59.87344 986.0094 0 0 128
-15.282428 -59.154953 986.29663 0 0 128
-15.284907 -58.413979 986.45538 0 0 128
-15.284402 -57.654697 986.42358 0 0 128
-15.285013 -56.906487 986.4649 0 0 128
-15.284891 -56.153564 986.45544 0 0 128
-15.274071 -55.352345 985.75098 0 0 128
-15.265398 -54.529881 985.17725 0 0 128
-15.245213 -53.740891 983.89093 0 0 128
-15.240742 -52.977657 983.60461 0 0 128
-15.234024 -52.193058 983.15985 0 0 128
-15.190504 -51.31546 980.36853 0 0 128
-15.183724 -50.519943 979.93262 0 0 128
-15.178955 -49.762306 979.63257 0 0 128
-15.173381 -48.991985 979.27234 0 0 128
-15.168677 -48.227543 978.96814 0 0 128
-15.154548 -47.424007 978.0528 0 0 128
-15.147547 -46.6586 977.60144 0 0 128
-15.143804 -45.893627 977.35651 0 0 128
-15.139671 -45.133312 977.08801 0 0 128
