ply
format ascii 1.0
comment PCL generated
element vertex 1197
property float x
property float y
property float z
property uchar red
property uchar green
property uchar blue
element face 0
element camera 0
property float view_px
property float view_py
property float view_pz
property float x_axisx
property float x_axisy
property float x_axisz
property float y_axisx
property float y_axisy
property float y_axisz
property float z_axisx
property float z_axisy
property float z_axisz
property float focal
property float scalex
property float scaley
property float centerx
property float centery
property int viewportx
property int viewporty
property float k1
property float k2
end_header
-4.7896943 5.2519016 993.12982 0 0 140
-4.7745066 5.9683061 992.74542 0 0 136
-4.7664833 6.7354898 992.93707 0 0 140
-4.7680073 7.4754992 992.6792 0 0 136
-4.7579103 8.2250786 991.8609 0 0 136
-4.7614093 8.9570045 991.07892 0 0 136
-4.7655301 9.6984262 990.84094 0 0 136
-4.7624211 10.498937 990.93262 0 0 136
-4.7768259 11.242329 993.19849 0 0 136
-4.7747536 11.974216 992.85834 0 0 136
-4.6994305 12.123226 968.62927 0 0 152
-4.7818661 13.525558 994.99402 0 0 140
-4.7744308 14.25535 994.78577 0 0 140
-4.7795129 15.00402 995.41815 0 0 140
-4.774931 15.791801 995.44086 0 0 136
-4.7646904 16.636271 996.21002 0 0 140
-4.7734079 17.536345 998.95044 0 0 144
-4.7787805 18.139439 999.06256 0 0 140
-4.7863007 18.944553 998.61981 0 0 140
-4.7880545 19.858599 999.82281 0 0 140
-6.2938199 28.589657 1454.7104 255 200 0
-4.7524285 20.978512 991.51013 0 0 136
-4.7521844 21.679079 990.86609 0 0 136
-4.7423196 22.347635 990.16071 0 0 136
-4.7053914 22.997171 989.37012 0 0 136
-4.6685491 23.659546 988.66083 0 0 136
-4.6220779 24.320698 987.8233 0 0 136
-4.5520577 24.969557 986.84119 0 0 136
-4.4886222 25.617029 986.02844 0 0 136
-4.4153447 26.272217 985.0578 0 0 136
-3.7018821 20.039198 791.72717 0 144 255
-3.8706877 22.532028 871.87592 0 28 255
-4.1166725 27.784193 980.80756 0 0 132
-4.0125279 28.619572 980.32751 0 0 132
-3.9059896 29.335646 979.77869 0 0 132
-3.7960157 30.111259 979.54175 0 0 128
-3.6865575 30.884531 978.92828 0 0 128
-3.5736854 31.654238 978.42419 0 0 128
-3.4978826 32.4133 978.05853 0 0 128
-3.427659 33.145233 977.50677 0 0 128
-3.3882365 33.87468 976.80975 0 0 128
-3.3436196 34.680618 976.98663 0 0 128
-3.309617 35.388767 975.07336 0 0 128
-3.3007116 36.132793 973.97461 0 0 132
-3.2846525 36.930168 976.39905 0 0 128
-3.2597725 37.717834 976.38702 0 0 128
-3.2510593 38.432049 976.38013 0 0 128
-3.2337112 39.143097 976.22198 0 0 128
-3.2367766 39.929733 977.08777 0 0 128
-3.2340701 40.718521 977.17633 0 0 128
-3.2231648 41.448963 975.93628 0 0 128
-3.1879318 41.737862 966.19946 0 0 128
-3.1797519 42.468914 966.04272 0 0 128
-3.1810112 43.19648 965.90417 0 0 128
-3.1869044 43.933247 965.75751 0 0 128
-3.1969464 44.676609 965.66974 0 0 128
-3.1872487 45.33654 964.73431 0 0 128
-3.1922987 46.280178 966.76782 0 0 128
-3.1856885 46.970943 966.77679 0 0 128
-3.1819184 47.717247 965.84583 0 0 128
-3.1775343 48.502686 966.55798 0 0 128
-3.1779666 49.209801 967.32861 0 0 128
-3.1649389 49.874336 966.3595 0 0 128
-3.1652822 49.830471 966.11908 0 0 128
-3.1713653 50.650948 966.5498 0 0 128
-3.1737342 51.469849 967.19098 0 0 128
-3.1763351 51.596233 966.92877 0 0 128
-3.1486535 54.26247 966.98328 0 0 128
-3.1758344 53.721939 969.95636 0 0 132
-3.1504171 55.322895 967.75146 0 0 128
-3.1473129 55.904846 965.76605 0 0 128
-3.1504626 56.6651 963.36914 0 0 128
-3.1548324 57.384705 964.78674 0 0 128
-3.1570461 58.553665 965.22137 0 0 128
-3.1488323 59.292576 964.53815 0 0 128
-3.1436141 59.420036 963.37299 0 0 128
-3.1476955 60.003841 963.72687 0 0 128
-3.1359372 60.696392 962.28882 0 0 128
-3.1513875 61.463776 962.94421 0 0 128
-3.1488371 62.197689 962.86334 0 0 128
-3.1519384 62.91613 962.72485 0 0 128
-3.1421022 63.647049 962.57477 0 0 128
-3.1604772 64.38176 962.54999 0 0 128
-3.1581125 65.113152 962.39618 0 0 128
-3.1593349 65.837059 962.29065 0 0 128
-3.1622729 66.560234 962.17505 0 0 128
-3.1668658 67.296196 962.06384 0 0 128
-3.1678329 68.029861 961.95972 0 0 128
-3.1562848 68.75573 961.80145 0 0 128
-3.1659667 69.481239 961.69653 0 0 128
-3.1671431 70.21209 961.56519 0 0 128
-3.1647892 70.936028 961.4339 0 0 128
-3.1745515 71.670631 961.35565 0 0 128
-3.1768265 72.401306 961.27698 0 0 128
-3.184449 73.114799 961.18604 0 0 128
-3.18226 73.839912 961.07495 0 0 128
-3.1900928 74.571045 960.96655 0 0 128
-3.1860688 75.302544 960.85571 0 0 128
-3.1912642 76.032463 960.78119 0 0 128
-3.1927826 76.758171 960.65472 0 0 128
-3.1899261 77.470459 960.55939 0 0 128
-3.1742585 78.183334 960.45154 0 0 128
-3.1781442 78.921265 960.36322 0 0 128
-3.1790719 79.656754 960.28912 0 0 128
-3.1666198 80.384148 960.19672 0 0 128
-3.1577394 81.113602 960.07367 0 0 128
-3.1558936 81.845474 959.98907 0 0 128
-3.1483228 82.570488 959.88635 0 0 128
-3.158957 83.31398 959.84869 0 0 128
-3.1681776 84.048309 959.87964 0 0 128
-3.159266 84.822418 960.36487 0 0 128
-3.1489847 85.688316 962.20703 0 0 128
-3.1434271 86.434593 962.11359 0 0 128
-3.1566558 87.174202 961.94189 0 0 128
-3.1491163 87.946365 962.17877 0 0 128
-3.1623235 88.749603 962.76746 0 0 128
-3.1475894 89.535042 963.35101 0 0 128
-3.201309 90.378075 964.23236 0 0 128
-3.2202244 91.164207 965.0213 0 0 128
-3.302222 91.840668 964.86993 0 0 128
-3.3302317 92.855156 967.36133 0 0 128
-3.3691432 93.828926 969.23859 0 0 128
-2.4162188 -88.996513 985.99921 0 0 128
-2.517415 -88.272385 986.07166 0 0 128
-2.4699035 -87.507233 985.80499 0 0 128
-2.4742465 -86.757095 985.61462 0 0 128
-2.4750931 -86.007454 985.44037 0 0 128
-2.4671025 -85.259911 985.28864 0 0 128
-2.4657249 -84.507233 985.15851 0 0 128
-2.4630306 -83.753677 985.04187 0 0 128
-2.4777374 -83.004898 984.93726 0 0 128
-2.4791498 -82.258537 984.83154 0 0 128
-2.4760456 -81.51049 984.68457 0 0 128
-2.4858692 -80.769447 984.61206 0 0 128
-2.4845142 -80.008995 984.50714 0 0 128
-2.4875071 -79.262039 984.3924 0 0 128
-2.4951408 -78.515182 984.30719 0 0 128
-2.5041394 -77.752365 984.21924 0 0 128
-2.502991 -76.995056 984.11121 0 0 128
-2.5052931 -76.218597 983.90771 0 0 128
-2.5203764 -75.482803 984.0921 0 0 128
-2.5203242 -74.693985 983.95581 0 0 128
-2.5201271 -73.966957 984.151 0 0 128
-2.5141437 -73.205994 984.18909 0 0 128
-2.506901 -72.455177 984.3833 0 0 128
-2.5128369 -71.746208 984.27582 0 0 128
-2.5142663 -70.960381 984.07043 0 0 128
-2.5205042 -70.182266 984.0835 0 0 128
-2.5206439 -69.389732 984.12274 0 0 128
-2.502893 -68.726433 984.76801 0 0 128
-2.4759703 -68.103394 982.85358 0 0 128
-2.4732494 -67.373581 984.4115 0 0 128
-2.4770954 -66.798721 985.9621 0 0 128
-2.4726102 -66.053978 983.3562 0 0 128
-2.450953 -65.438736 981.76959 0 0 132
-2.4523211 -64.241196 984.51129 0 0 128
-2.4664304 -63.381027 987.23315 0 0 132
-2.4691195 -62.520782 988.51483 0 0 132
-2.4499629 -62.356606 980.71399 0 0 132
-2.397737 -64.491028 968.29126 0 0 148
-2.3067458 -60.0219 923.76105 0 0 216
-2.3548567 -57.075706 927.21863 0 0 212
-2.4190509 -56.783459 947.66156 0 0 180
-2.5158503 -49.689442 963.54315 0 0 160
-2.5423434 -49.96423 979.36542 0 0 140
-2.5783863 -48.954689 996.21057 0 0 148
-2.4984241 -55.684422 986.53412 0 0 128
-2.4813809 -54.57021 981.7077 0 0 132
-2.484216 -54.273605 984.94971 0 0 128
-2.4937694 -53.515835 985.54517 0 0 128
-2.5004377 -53.31805 988.61334 0 0 128
-2.5001516 -52.723198 986.75745 0 0 132
-2.4900725 -51.698563 988.07458 0 0 128
-2.5140107 -50.61095 987.28015 0 0 128
-2.4915447 -49.907921 986.6369 0 0 128
-2.4843528 -49.141289 986.60278 0 0 128
-2.4819319 -48.46801 987.59711 0 0 128
-2.4714394 -47.638084 986.34375 0 0 128
-2.4651511 -46.878555 985.48065 0 0 128
-2.4529271 -46.077019 982.85858 0 0 128
-2.4576643 -45.312405 982.29156 0 0 128
-2.4615526 -44.500881 981.59503 0 0 128
-2.4558709 -43.447449 978.89404 0 0 128
-2.4722986 -42.80637 979.48859 0 0 128
-2.4822402 -42.156261 979.5224 0 0 128
-2.4754922 -41.400909 979.08643 0 0 128
-2.4789405 -40.662846 978.90759 0 0 128
-2.4809384 -39.910618 978.66541 0 0 128
-2.4845319 -39.171967 978.40515 0 0 128
-8.4374733 -58.004684 3251.2073 128 0 0
-4.1563244 -41.3475 1616.7084 232 0 0
-4.138041 -30.823959 1600.8123 255 0 0
-4.1947131 -24.491993 1623.0063 224 0 0
-4.2340579 -20.259016 1641.3645 196 0 0
-4.2582731 -18.653265 1651.8467 180 0 0
-4.1616616 -19.292187 1614.5405 236 0 0
-4.0185037 -21.247437 1559.8684 255 60 0
-3.8942015 -24.541607 1504.1458 255 140 0
-3.9256492 -26.40588 1497.1407 255 152 0
-3.9887154 -21.787243 1494.9451 255 156 0
-4.0266609 -23.432932 1489.4552 255 160 0
-3.9571655 -19.382708 1466.0259 255 196 0
-3.9325616 -19.58659 1445.3318 255 228 0
-3.9019742 -17.657642 1449.7217 255 220 0
-3.8666902 -18.302986 1418.7896 246 255 10
-3.872587 -20.754606 1384.4497 194 255 62
-3.9187462 -20.684301 1363.2687 162 255 94
-3.9957573 -20.138277 1345.4685 138 255 118
-4.084959 -19.489933 1332.7836 118 255 138
-4.1437368 -19.638559 1310.4629 86 255 170
-4.221539 -19.190903 1294.5275 62 255 194
-4.2110815 -19.026356 1260.6838 14 255 242
-5.6629896 -12.752517 1812.0056 128 0 0
-5.5298338 -10.735821 1742.3127 128 0 0
-3.749135 -17.680206 1008.2964 0 0 148
-3.8403821 -16.434444 1021.8454 0 0 172
-3.9062943 -15.024956 1022.4578 0 0 172
-1.7662635 -19.73535 155.77245 128 0 0
-2.8067348 -10.793694 557.42474 250 255 6
-3.9563622 -15.030679 994.37177 0 0 136
-3.9877126 -14.326121 995.48914 0 0 136
-3.9881959 -13.572896 995.54968 0 0 136
-4.027369 -12.677874 1002.7052 0 0 136
-4.0317435 -12.107842 1000.2522 0 0 136
-4.0576262 -11.415761 999.50952 0 0 136
-4.0585637 -10.576728 999.53021 0 0 136
-4.0537515 -9.8469067 998.53925 0 0 136
-4.0431418 -9.0879869 997.40765 0 0 136
-4.04106 -8.2269697 995.82135 0 0 132
-4.0619583 -7.5432324 995.73883 0 0 132
-4.0807443 -6.8189034 996.88696 0 0 136
-4.0852823 -6.0860929 997.01782 0 0 136
-4.0992713 -5.3444262 996.54749 0 0 136
-4.1029305 -4.5920596 996.11029 0 0 136
-4.1049109 -3.8234036 995.72235 0 0 136
-4.1015606 -3.0638409 995.08282 0 0 136
-4.0940208 -2.3335447 995.78271 0 0 140
-4.0839796 -1.5693657 995.43585 0 0 140
-4.079308 -0.78303874 996.10944 0 0 140
-4.07128 -0.025520451 994.92468 0 0 140
-4.068213 0.74591148 994.8277 0 0 140
-4.0659184 1.5086602 993.2287 0 0 136
-4.0532036 2.2674239 992.60077 0 0 136
-4.0528727 3.0219376 992.64868 0 0 136
-4.0512643 3.7740123 992.93494 0 0 136
-4.0375962 4.5108089 993.18311 0 0 140
-4.0412292 5.2356744 993.2536 0 0 140
-4.0261221 5.9724135 993.77173 0 0 140
-4.0131006 6.7278614 993.04327 0 0 140
-4.0044575 7.4834485 992.76099 0 0 136
-4.0115738 8.2414875 991.77142 0 0 136
-4.0037293 8.9451303 991.56732 0 0 136
-4.0138364 9.7073603 991.69409 0 0 136
-4.0176563 10.471598 993.91968 0 0 136
-4.0200438 11.257141 994.00128 0 0 136
-4.0259438 11.974423 992.68335 0 0 136
-4.0218654 12.757151 993.32233 0 0 136
-4.0282421 13.563363 995.05463 0 0 140
-4.0208893 14.26422 993.56622 0 0 136
-4.0373125 15.003902 997.33179 0 0 140
-4.0238066 15.830142 995.90631 0 0 140
-4.0227208 16.707346 996.23248 0 0 140
-4.0101357 17.506121 996.03229 0 0 136
-4.0128026 18.490465 997.2804 0 0 140
-4.0356159 19.340893 998.01996 0 0 140
-4.0347548 19.964062 998.73474 0 0 140
-4.0040298 20.248409 992.29669 0 0 136
-4.0044336 20.968874 991.60059 0 0 136
-3.9985743 21.678759 990.97961 0 0 136
-3.9845932 22.351418 990.39813 0 0 136
-3.950814 22.994989 989.52045 0 0 136
-3.9166017 23.672314 988.70709 0 0 136
-3.8730059 24.319946 987.95123 0 0 136
-3.811718 24.98885 987.16718 0 0 136
-3.7379785 25.64098 986.16693 0 0 136
-3.6588552 26.272844 985.5199 0 0 136
-3.0890698 20.831079 791.72296 0 144 255
-3.1991575 22.744383 867.50079 0 32 255
-3.3759286 27.750128 980.98871 0 0 132
-3.2716172 28.572784 980.51056 0 0 132
-3.157783 29.344027 979.85205 0 0 132
-3.0494645 30.103064 979.46735 0 0 128
-2.943979 30.881065 979.05969 0 0 128
-2.8355219 31.671368 978.62244 0 0 128
-2.768275 32.430225 978.26654 0 0 128
-2.6838648 33.152317 977.70605 0 0 128
-2.6592679 33.86541 976.94672 0 0 128
-2.6151364 34.72467 977.64911 0 0 128
-2.5684938 35.422302 973.63287 0 0 132
-2.5615752 36.281166 977.07104 0 0 128
-2.5457339 37.001614 977.54169 0 0 128
-2.5196958 37.713993 976.79169 0 0 128
-2.492775 38.4814 976.74805 0 0 128
-2.4971364 39.158211 977.4054 0 0 128
-2.5105193 39.884869 980.48303 0 0 132
-2.5054159 40.792366 982.54291 0 0 136
-2.4919891 41.492432 979.95441 0 0 132
-2.4477806 41.745205 966.35822 0 0 128
-2.4385405 42.470539 966.1911 0 0 128
-2.4408836 43.202164 966.05792 0 0 128
-2.4438946 43.939816 965.92944 0 0 128
-2.4412651 44.674458 965.81024 0 0 128
-2.4491405 45.519596 966.53796 0 0 128
-2.4500597 46.227768 966.82739 0 0 128
-2.4486978 46.960346 967.19684 0 0 128
-2.4426658 47.723675 966.21771 0 0 128
-2.4352899 49.249504 968.77203 0 0 128
-2.4295528 49.296688 967.16534 0 0 128
-2.3632302 56.166817 974.20966 0 0 140
-2.4086862 53.346901 972.69086 0 0 136
-2.400605 55.715672 978.88953 0 0 144
-2.3771868 61.591156 991.63269 0 0 164
-2.3488083 67.568588 1001.963 0 0 180
-2.3878109 65.357841 1005.2182 0 0 184
-2.4182017 54.261322 968.0257 0 0 128
-2.4127963 55.363583 967.83008 0 0 128
-2.4162791 56.028374 966.49219 0 0 128
-2.4183009 57.096516 964.38794 0 0 128
-2.4063115 58.496532 965.13635 0 0 128
-2.4275649 58.283592 965.24237 0 0 128
-2.4240375 58.788406 964.55444 0 0 128
-2.4262247 59.407238 964.12817 0 0 128
-2.4205344 60.029133 963.87085 0 0 128
-2.429666 60.705177 962.51025 0 0 128
-2.4269326 61.461872 963.10333 0 0 128
-2.4091821 62.198162 963.03931 0 0 128
-2.4214509 62.922928 962.87372 0 0 128
-2.4182594 63.653671 962.77258 0 0 128
-2.4152198 64.389526 962.67987 0 0 128
-2.4162407 65.125534 962.55066 0 0 128
-2.4119239 65.847939 962.42676 0 0 128
-2.4267969 66.580727 962.33679 0 0 128
-2.4223852 67.30452 962.1908 0 0 128
-2.4290659 68.031097 962.08862 0 0 128
-2.4190159 68.760895 961.93433 0 0 128
-2.4311049 69.494591 961.82391 0 0 128
-2.4417164 70.215652 961.72998 0 0 128
-2.441493 70.946007 961.63684 0 0 128
-2.4431345 71.681664 961.51477 0 0 128
-2.4475563 72.405243 961.43488 0 0 128
-2.454957 73.126724 961.34625 0 0 128
-2.4573996 73.851532 961.25049 0 0 128
-2.460336 74.587502 961.14972 0 0 128
-2.4697351 75.317337 961.04224 0 0 128
-2.4694397 76.054634 960.93958 0 0 128
-2.4734602 76.771751 960.83044 0 0 128
-2.4692082 77.485619 960.71716 0 0 128
-2.4560504 78.196426 960.61249 0 0 128
-2.461972 78.923767 960.53668 0 0 128
-2.4548073 79.666496 960.4859 0 0 128
-2.4504044 80.404686 960.38049 0 0 128
-2.4343617 81.116425 960.27362 0 0 128
-2.4328578 81.849106 960.16302 0 0 128
-2.4132013 82.577843 960.07928 0 0 128
-2.4252999 83.310921 960.08447 0 0 128
-2.4275181 83.954208 959.39948 0 0 128
-2.419347 85.027145 962.95325 0 0 128
-2.4079263 85.693291 962.33539 0 0 128
-2.411711 86.442642 962.30267 0 0 128
-2.4160039 87.195564 962.31683 0 0 128
-2.4290717 87.961128 962.4469 0 0 128
-2.4265769 88.777634 963.28021 0 0 128
-2.4716511 89.564735 963.73065 0 0 128
-2.4628985 90.362854 964.40729 0 0 128
-2.4690821 91.144814 964.94202 0 0 128
-2.5583766 92.083786 966.53204 0 0 128
-2.5705101 92.812782 966.87708 0 0 128
-2.5988088 93.757736 968.98773 0 0 128
-1.7243072 -89.038887 986.38605 0 0 128
-1.7823365 -88.306847 986.27588 0 0 128
-1.7481531 -87.543602 986.01001 0 0 128
-1.7427161 -86.796265 985.80499 0 0 128
-1.7438624 -86.042717 985.62604 0 0 128
-1.7346882 -85.295242 985.45844 0 0 128
-1.7287769 -84.541687 985.3089 0 0 128
-1.720812 -83.778816 985.15485 0 0 128
-1.7272692 -83.025627 985.06946 0 0 128
-1.7310665 -82.273987 984.95581 0 0 128
-1.7394471 -81.527634 984.86688 0 0 128
-1.7463093 -80.777725 984.7677 0 0 128
-1.7484021 -80.025238 984.66492 0 0 128
-1.7382895 -79.275047 984.53796 0 0 128
-1.7519063 -78.531662 984.45538 0 0 128
-1.7586322 -77.765457 984.36469 0 0 128
-1.7581573 -77.017601 984.27386 0 0 128
-1.750692 -76.256416 984.16351 0 0 128
-1.7640637 -75.4916 984.14764 0 0 128
-1.7782081 -74.710136 984.13257 0 0 128
-1.7848148 -74.000221 984.43231 0 0 128
-1.7612478 -73.216248 984.27008 0 0 128
-1.7617272 -72.462296 984.30255 0 0 128
-1.7766792 -71.72963 984.49042 0 0 128
-1.7727274 -70.945923 984.12201 0 0 128
-1.7667712 -70.217552 984.35278 0 0 128
-1.7598076 -69.421577 985.01709 0 0 128
-1.743953 -68.661888 985.26843 0 0 128
-1.7291651 -68.063438 984.97095 0 0 128
-1.7278647 -67.573792 984.51752 0 0 128
-1.7235934 -66.79126 987.59448 0 0 128
-1.702612 -66.067688 984.90649 0 0 128
-1.6908211 -65.19175 985.46552 0 0 128
-1.6891062 -64.561813 984.24573 0 0 128
-1.6893981 -63.614815 985.71423 0 0 128
-1.6871378 -63.09338 982.65295 0 0 128
-1.676544 -62.799774 980.7475 0 0 132
-1.6704885 -62.780716 976.92365 0 0 136
-1.7105104 -60.249416 980.33795 0 0 132
-1.740703 -59.2799 986.24786 0 0 128
-1.7478504 -58.709724 985.69366 0 0 128
-1.7351131 -46.790459 943.00342 0 0 188
-1.748469 -57.244762 984.25598 0 0 132
-1.73755 -56.688984 983.59937 0 0 132
-1.7420167 -55.329727 984.32166 0 0 132
-1.7519182 -54.949993 985.4798 0 0 128
-1.7498716 -54.449551 987.50671 0 0 128
-1.7399585 -53.444195 985.14587 0 0 128
-1.7412336 -53.225407 989.20422 0 0 128
-1.7461493 -52.300053 988.93231 0 0 128
-1.7370958 -51.596336 986.44556 0 0 132
-1.7312706 -50.352127 984.63226 0 0 132
-1.7408073 -49.824043 986.23242 0 0 128
-1.7266673 -49.103794 985.63574 0 0 128
-1.7231343 -48.370934 985.90088 0 0 128
-1.7162578 -47.667774 985.88397 0 0 128
-1.7051746 -46.859447 983.48291 0 0 128
-1.7080997 -46.066364 982.75867 0 0 128
-1.6967671 -45.284195 982.55603 0 0 128
-1.7005506 -44.468876 981.58771 0 0 128
-1.7013288 -43.528275 980.15588 0 0 128
-1.7106475 -42.762623 979.93066 0 0 128
-1.7252878 -42.161339 979.41809 0 0 128
-1.726745 -41.404541 979.28009 0 0 128
-1.7336792 -40.665974 979.13208 0 0 128
-1.7290297 -39.913208 978.84497 0 0 128
-1.7341952 -39.163517 978.56647 0 0 128
-1.7372304 -38.422016 978.27698 0 0 128
-2.9815862 -25.672394 1627.2843 216 0 0
-2.9196973 -24.567759 1594.7617 255 8 0
-2.8425665 -22.600763 1564.9916 255 52 0
-2.8203626 -22.406652 1558.2804 255 64 0
-2.8407252 -21.447002 1566.0367 255 52 0
-2.8369186 -18.927818 1565.8843 255 52 0
-2.7811284 -18.885197 1534.0951 255 96 0
-2.7302566 -21.432802 1500.9727 255 144 0
-2.7783031 -21.741333 1498.1765 255 148 0
-2.8767834 -15.995027 1515.3134 255 124 0
-2.9073474 -18.948427 1497.1141 255 152 0
-2.877151 -16.975189 1479.4159 255 176 0
-2.827543 -16.657072 1457.7032 255 208 0
-2.8666651 -15.36447 1491.0856 255 160 0
-2.9135931 -13.397182 1487.9832 255 164 0
-2.9203362 -15.189481 1453.0757 255 216 0
-2.9441619 -15.679463 1407.7998 230 255 26
-2.9797888 -16.360203 1359.8701 158 255 98
-3.0026639 -17.608332 1310.3695 86 255 170
-3.0302839 -17.724243 1262.5654 14 255 242
-3.0598102 -17.621273 1222.0276 0 208 255
-3.0687516 -17.21077 1172.7451 0 136 255
-4.1018677 -8.9663877 1724.0372 128 0 0
-4.0756469 -8.6820841 1666.3025 148 0 0
-3.0140212 -17.353544 1023.4739 0 0 172
-3.1032841 -16.266808 1040.2997 0 0 196
-3.1219983 -13.906089 1028.9856 0 0 180
-1.6869048 -26.602827 176.04251 128 0 0
-2.3535268 -15.173021 532.74457 255 224 0
-3.2062249 -15.011991 994.42285 0 0 136
-3.2224314 -14.328906 995.66882 0 0 136
-3.2385876 -13.576077 995.67877 0 0 136
-3.2684093 -12.945117 1002.0714 0 0 136
-3.2753642 -12.284399 1001.1857 0 0 136
-3.2960467 -12.221593 1002.0284 0 0 140
-3.2970293 -11.297699 997.92535 0 0 132
-3.2714131 -10.539412 993.14001 0 0 128
-3.2731035 -9.6203632 994.2002 0 0 128
-3.2864034 -8.3296871 994.99139 0 0 132
-3.2978389 -7.640285 996.32306 0 0 132
-3.3090146 -6.8297853 997.09955 0 0 136
-3.321599 -6.0668883 997.05219 0 0 136
-3.3295562 -5.3474398 996.49854 0 0 136
-3.3360145 -4.5996795 995.74915 0 0 136
-3.3414235 -3.8078744 995.45807 0 0 136
-3.3412151 -3.0496552 995.02692 0 0 136
-3.3352714 -2.3126173 994.53815 0 0 136
-3.3289926 -1.5821338 995.14252 0 0 140
-3.3110387 -0.76395512 995.52484 0 0 140
-3.3061743 0.022678304 994.69464 0 0 140
-3.3139834 0.76019919 994.43762 0 0 140
-3.3018587 1.4998711 993.6803 0 0 136
-3.2934546 2.269062 992.86853 0 0 136
-3.2988555 3.0283365 992.53448 0 0 136
-3.297925 3.7807372 992.73578 0 0 136
-3.2950923 4.5051265 992.90698 0 0 136
-3.276206 5.2306361 993.10669 0 0 136
-3.2672284 5.9749522 992.63733 0 0 136
-3.2574494 6.7336831 992.90515 0 0 136
-3.2588801 7.4895201 992.81952 0 0 136
-3.2583373 8.2428961 992.33862 0 0 136
-3.2582645 8.9661064 992.05817 0 0 136
-3.2581706 9.7339935 991.95099 0 0 136
-3.2638197 10.478464 994.23254 0 0 136
-3.2634466 11.27838 994.08649 0 0 136
-3.2738118 12.015699 993.56989 0 0 136
-3.2696891 12.772906 993.65552 0 0 136
-3.2791903 13.534939 993.52985 0 0 136
-3.2637706 14.240996 993.47949 0 0 136
-3.2771235 15.085011 996.18048 0 0 140
-3.2725151 15.892267 996.2514 0 0 140
-3.2662373 16.752804 996.3576 0 0 136
-3.2600758 17.685373 996.5257 0 0 136
-3.2616336 18.467524 997.58276 0 0 140
-3.2728755 19.094381 997.31567 0 0 136
-3.276283 19.898865 997.37518 0 0 136
-3.2565084 20.237904 992.27557 0 0 136
-3.2514653 20.963417 991.62988 0 0 136
-3.2505243 21.679083 991.06854 0 0 136
-3.2418172 22.350044 990.47308 0 0 136
-3.2084236 23.003429 989.65649 0 0 136
-3.1673884 23.679092 988.9469 0 0 136
-3.1172154 24.338295 988.12744 0 0 136
-3.063894 24.983185 987.18964 0 0 136
-2.9798317 25.634562 986.30762 0 0 136
-2.9192464 26.261736 985.38251 0 0 136
-2.5138478 20.478142 795.85077 0 140 255
-2.5488112 22.945303 869.78687 0 28 255
-2.6392891 27.764421 980.57056 0 0 132
-2.5366406 28.562199 980.46271 0 0 132
-2.4279382 29.339705 979.85675 0 0 132
-2.3177934 30.112129 979.63763 0 0 128
-2.2013218 30.884289 979.21259 0 0 128
-2.1046937 31.672655 978.76965 0 0 128
-2.031347 32.431099 978.34003 0 0 128
-1.9494897 33.157532 977.80896 0 0 128
-1.9077113 33.886444 977.12427 0 0 128
-1.8778104 34.709229 977.1319 0 0 128
-1.8407085 35.510841 977.64648 0 0 128
-1.803746 36.285667 977.08154 0 0 128
-1.7908386 37.064564 977.97021 0 0 128
-1.7781138 37.701065 977.36981 0 0 128
-1.7566708 38.446712 977.11243 0 0 128
-1.7491057 39.162159 976.31348 0 0 128
-1.7345161 39.804798 975.33502 0 0 128
-1.7391697 40.569771 974.27728 0 0 128
-1.7201325 41.459042 971.08496 0 0 132
-1.70767 41.750179 966.47632 0 0 128
-1.7067872 42.480709 966.35474 0 0 128
-1.7009214 43.211384 966.21674 0 0 128
-1.7027478 43.94112 966.10352 0 0 128
-1.7056038 44.675541 965.93103 0 0 128
-1.7136362 45.561089 966.95465 0 0 128
-1.7045341 46.222965 966.82159 0 0 128
-1.7021239 46.968605 966.909 0 0 128
-1.7031127 47.801956 966.90894 0 0 128
-1.6862396 49.741451 970.5387 0 0 132
-1.6932027 49.584816 968.96271 0 0 128
-1.6385677 55.010349 973.68781 0 0 136
-1.5606643 63.708294 983.48096 0 0 156
-1.5638726 64.027969 981.99646 0 0 152
-1.5799059 69.483315 1017.3692 0 0 204
-1.6702231 56.582344 978.78485 0 0 144
-1.6356457 63.174553 996.95709 0 0 172
0.032625526 154.32652 828.3634 0 124 255
-1.6782485 55.841415 969.50269 0 0 132
-1.6771706 55.943333 966.021 0 0 128
-1.6884212 56.657444 965.25891 0 0 128
-1.6797248 57.828651 964.51324 0 0 128
-1.6863835 58.662037 965.32361 0 0 128
-1.695562 58.606277 965.2085 0 0 128
-1.6960031 59.415455 964.7641 0 0 128
-1.7017028 60.117348 962.47894 0 0 128
-1.7045295 60.734825 963.44531 0 0 128
-1.6943942 61.482311 963.4483 0 0 128
-1.6822771 62.217426 963.2594 0 0 128
-1.6746423 62.935234 963.10626 0 0 128
-1.6666268 63.665455 962.94159 0 0 128
-1.6682785 64.401169 962.82727 0 0 128
-1.6636117 65.130432 962.70111 0 0 128
-1.6756611 65.862312 962.59967 0 0 128
-1.6821967 66.590752 962.45026 0 0 128
-1.6931254 67.318993 962.39081 0 0 128
-1.688664 68.042633 962.22986 0 0 128
-1.6955495 68.770851 962.10303 0 0 128
-1.7005026 69.496933 961.94635 0 0 128
-1.7118318 70.227348 961.87433 0 0 128
-1.7100506 70.955284 961.75623 0 0 128
-1.7054278 71.68644 961.67108 0 0 128
-1.7202157 72.407898 961.60468 0 0 128
-1.727567 73.129753 961.49933 0 0 128
-1.7319955 73.861588 961.40985 0 0 128
-1.7393631 74.595947 961.32825 0 0 128
-1.7374116 75.322556 961.20221 0 0 128
-1.7468674 76.057861 961.10944 0 0 128
-1.7460231 76.770958 960.97791 0 0 128
-1.7547555 77.485054 960.88928 0 0 128
-1.7371787 78.20298 960.79437 0 0 128
-1.7321 78.934799 960.72626 0 0 128
-1.7313569 79.678284 960.62854 0 0 128
-1.718708 80.408821 960.52448 0 0 128
-1.6936634 81.129791 960.38379 0 0 128
-1.6986583 81.861023 960.31744 0 0 128
-1.6873143 82.586105 960.21942 0 0 128
-1.6917377 83.326126 960.24188 0 0 128
-1.7005235 84.00663 959.73584 0 0 128
-1.6738832 85.013199 962.9751 0 0 128
-1.6784683 85.726463 962.58429 0 0 128
-1.6799836 86.457092 962.41272 0 0 128
-1.6876312 87.223 962.63586 0 0 128
-1.7067145 88.004318 962.9845 0 0 128
-1.715119 88.781715 963.32965 0 0 128
-1.7288444 89.547241 963.68219 0 0 128
-1.7332526 90.343307 964.34479 0 0 128
-1.7601267 91.055138 964.04132 0 0 128
-1.7837803 92.101227 966.75293 0 0 128
-1.8214872 92.801537 966.99152 0 0 128
-1.9596463 93.806725 969.49554 0 0 128
-0.98921937 -89.031738 986.05304 0 0 128
-1.0169334 -88.294365 986.12244 0 0 128
-0.99709034 -87.539978 985.95618 0 0 128
-0.97827041 -86.806274 985.86566 0 0 128
-0.97973955 -86.068413 985.74414 0 0 128
-0.97327602 -85.319847 985.61169 0 0 128
-0.96540564 -84.564445 985.47833 0 0 128
-0.96407855 -83.812073 985.35785 0 0 128
-0.97161019 -83.05983 985.25952 0 0 128
-0.98105818 -82.305466 985.15485 0 0 128
-0.9960072 -81.554588 985.05713 0 0 128
-0.99437922 -80.795403 984.93213 0 0 128
-0.99709702 -80.041779 984.81812 0 0 128
-0.99173504 -79.295029 984.70154 0 0 128
-1.0065881 -78.551926 984.6427 0 0 128
-1.0146251 -77.792191 984.51447 0 0 128
-1.0109917 -77.036812 984.41052 0 0 128
-1.0105395 -76.269821 984.30524 0 0 128
-1.0062958 -75.51442 984.25897 0 0 128
-1.0152853 -74.744255 984.28302 0 0 128
-1.0327164 -74.00647 984.67255 0 0 128
-1.0215427 -73.243446 984.54102 0 0 128
-1.0117078 -72.495117 984.38635 0 0 128
-1.0267154 -71.708237 984.33508 0 0 128
-1.0244862 -70.955406 984.41962 0 0 128
-1.0282414 -70.277473 984.82513 0 0 128
-1.0100337 -69.495369 984.97693 0 0 128
-0.99241143 -68.578781 985.4624 0 0 128
-0.98385358 -68.131889 985.62915 0 0 128
-0.97821134 -67.617279 984.68567 0 0 128
-0.96081269 -66.859367 984.48859 0 0 128
-0.96200508 -65.977425 987.02332 0 0 128
-0.95757985 -65.143333 986.84442 0 0 128
-0.95035809 -64.494087 988.34503 0 0 128
0 0 0 0 0 128
0 0 0 0 0 128
-0.93962508 -63.397343 980.96808 0 0 132
-0.95699948 -62.560692 980.22369 0 0 132
-0.95301533 -61.431259 981.05939 0 0 132
-0.97620833 -60.170444 983.55261 0 0 128
-0.98952973 -58.74654 985.1402 0 0 128
-1.002647 -58.362137 983.63837 0 0 128
-1.0136092 -56.35733 984.04248 0 0 132
-1.0130675 -55.888599 984.95801 0 0 132
-1.0176688 -55.666302 986.3728 0 0 128
-1.0129896 -55.136818 987.06476 0 0 128
-0.99280578 -54.455654 986.36676 0 0 128
-0.97394544 -53.767365 986.24384 0 0 128
-0.98323435 -52.994896 990.44733 0 0 128
-0.98116946 -52.258038 989.9361 0 0 128
-0.98474836 -51.598335 986.46033 0 0 132
-0.97216326 -50.736866 984.91663 0 0 132
-0.9796291 -49.730968 984.94067 0 0 132
-0.96546984 -48.11552 977.11707 0 0 140
-0.97084218 -48.327042 985.74915 0 0 128
-0.96123701 -47.638733 985.55042 0 0 128
-0.95613962 -46.63472 981.87073 0 0 128
-0.95000738 -46.023872 982.18311 0 0 128
-0.94687527 -45.192219 981.82007 0 0 128
-0.95632261 -44.418209 981.32483 0 0 128
-0.95471865 -43.597462 980.38501 0 0 128
-0.95193988 -42.922783 980.28876 0 0 128
-0.96658754 -42.174042 979.62183 0 0 128
-0.97664464 -41.421154 979.49506 0 0 128
-0.97930366 -40.668461 979.2561 0 0 128
-0.97815537 -39.906101 978.41882 0 0 128
-0.97841275 -39.015217 972.33453 0 0 136
-3.4782083 -37.567341 3211.4314 128 0 0
-1.6440731 -25.909708 1534.9728 255 100 0
-1.683477 -24.782246 1572.9517 255 44 0
-1.7209791 -19.75975 1611.6505 240 0 0
-1.7060908 -16.604568 1603.7511 252 0 0
-1.6542628 -17.16321 1570.202 255 44 0
-1.6271434 -17.276012 1552.99 255 68 0
-1.6253934 -17.091677 1543.4391 255 84 0
-1.6326284 -17.308474 1533.6504 255 96 0
-1.6154319 -16.418818 1503.6077 255 140 0
-1.7142137 -12.476344 1514.7083 255 124 0
-1.8349466 -12.244501 1544.0837 255 80 0
-1.7264836 -15.904572 1473.2075 255 184 0
-1.7857959 -10.511992 1526.5376 255 108 0
-1.736632 -13.157351 1495.0765 255 152 0
-1.7812586 -12.367808 1485.5439 255 168 0
-1.8353151 -13.151278 1455.5068 255 212 0
-1.8777874 -12.938028 1414.9227 238 255 18
-1.9398695 -13.265456 1375.489 182 255 74
-1.9988104 -13.711412 1321.2903 102 255 154
-2.038162 -16.352877 1245.6029 0 244 255
-2.0936339 -17.037876 1198.8966 0 176 255
-2.1487436 -16.369875 1150.6383 0 104 255
-2.201232 -17.443565 1127.4055 0 68 255
-2.234977 -19.036917 1089.5117 0 16 255
-2.2437091 -16.44858 1030.058 0 0 184
-2.3007877 -15.578166 1033.7483 0 0 188
-2.3560908 -13.263564 1037.5486 0 0 196
-1.6142997 -35.990505 226.18698 128 0 0
-1.960183 -15.598263 551.09644 255 252 0
-2.4660063 -15.008559 994.47021 0 0 136
-2.4802179 -14.337157 995.65973 0 0 136
-2.5048034 -13.579687 995.79218 0 0 136
-2.5359061 -12.496559 1011.3621 0 0 148
-2.5364845 -12.190947 1009.2873 0 0 148
-2.5430052 -11.499225 1007.0818 0 0 144
-2.5472009 -10.154991 1004.7332 0 0 140
-2.5399213 -9.5877638 1003.15 0 0 140
-2.5319033 -9.0586414 1002.3607 0 0 140
-2.5397675 -8.1475477 995.77264 0 0 132
-2.5430791 -7.6593118 997.1969 0 0 136
-2.5505276 -6.9225411 997.83606 0 0 136
-2.5601301 -6.0456691 997.77863 0 0 136
-2.5647402 -5.3130689 996.51227 0 0 136
-2.5685651 -4.5644588 996.26282 0 0 136
-2.5759797 -3.7924569 995.77692 0 0 136
-2.580241 -3.0300169 995.11902 0 0 136
-2.5825558 -2.2970297 994.84796 0 0 136
-2.5774779 -1.5513616 994.51501 0 0 136
-2.5660713 -0.81264728 994.94177 0 0 136
-2.5608263 -0.0021324009 994.79034 0 0 140
-2.5591733 0.76123941 994.48022 0 0 140
-2.5560882 1.4906549 993.85809 0 0 136
-2.543529 2.2650137 993.14319 0 0 136
-2.5447738 3.0325038 992.98462 0 0 136
-2.5387113 3.7741597 992.83154 0 0 136
-2.524822 4.4961467 992.46161 0 0 136
-2.5261948 5.2237234 992.39935 0 0 136
-2.5165167 5.9626641 992.04413 0 0 136
-2.5113029 6.7279215 991.83862 0 0 136
-2.509732 7.5059891 992.34265 0 0 136
-2.5154085 8.2246561 992.1076 0 0 136
-2.5098319 9.0130672 992.29108 0 0 136
-2.5051687 9.8073463 991.42975 0 0 136
-2.5128956 10.510647 994.85852 0 0 140
-2.508106 11.274291 993.95966 0 0 136
-2.5158978 12.014538 993.36365 0 0 136
-2.5085094 12.742456 993.12305 0 0 136
-2.5196655 13.518058 993.83673 0 0 136
-2.5118892 14.299525 994.5191 0 0 136
-2.5194733 15.022728 994.9212 0 0 136
-2.5245852 15.754112 994.35822 0 0 136
-2.5247958 16.960203 996.40527 0 0 136
-2.5068288 17.716757 997.0379 0 0 136
-2.4967811 18.301151 997.43268 0 0 136
-2.5057483 19.097855 997.59686 0 0 136
-2.5041006 20.04344 997.78931 0 0 136
-2.5034442 20.229492 992.21808 0 0 136
-2.4936724 20.956507 991.64661 0 0 136
-2.4975204 21.672371 991.10638 0 0 136
-2.4881105 22.34111 990.43231 0 0 136
-2.454231 23.004131 989.69263 0 0 136
-2.427068 23.680019 988.97064 0 0 136
-2.3642509 24.340145 988.13617 0 0 136
-2.2955956 24.968958 987.02838 0 0 136
-2.2306206 25.613466 986.19513 0 0 136
-2.1703167 26.246597 985.36652 0 0 136
-1.9437654 20.599773 824.76361 0 96 255
-1.9126303 23.74242 886.18933 0 4 255
-1.8990405 27.794146 980.93622 0 0 132
-1.8048939 28.55851 980.69739 0 0 132
-1.6862322 29.356987 980.2738 0 0 132
-1.5796062 30.095795 979.77716 0 0 128
-1.4694999 30.879164 979.35181 0 0 128
-1.3719786 31.679129 978.9444 0 0 128
-1.2899592 32.443588 978.35815 0 0 128
-1.2170205 33.158707 977.97168 0 0 128
-1.1729026 33.905979 977.43707 0 0 128
-1.1403071 34.686871 976.39178 0 0 128
-1.0890466 35.455135 975.22498 0 0 132
-1.0608616 36.332317 977.14783 0 0 128
-1.0476089 37.064182 978.09991 0 0 128
-1.0352178 37.691338 977.64417 0 0 128
-1.0224645 38.425278 977.09088 0 0 128
-1.0031182 39.191872 976.77814 0 0 128
-0.9902187 39.825592 975.75763 0 0 128
-0.9950816 40.596169 975.10925 0 0 128
-0.98718202 41.285442 971.20734 0 0 132
0.095163867 7.6516156 -5.0140457 128 0 0
-0.96013546 42.490379 966.47919 0 0 128
-0.96038675 43.217968 966.36371 0 0 128
-0.96475708 43.949902 966.22052 0 0 128
-0.97269267 44.673145 966.0127 0 0 128
-0.97462296 45.480061 966.78882 0 0 128
-0.97555119 46.100605 966.58844 0 0 128
-0.96765924 47.002899 966.96857 0 0 128
-0.95993644 47.826736 967.29797 0 0 128
-0.95253414 48.816555 967.6344 0 0 128
-0.93884957 50.67503 969.07214 0 0 128
-0.90586311 55.086227 971.77905 0 0 136
0 0 0 0 0 128
-0.80900949 63.152447 978.23553 0 0 148
-0.21822274 120.75498 1073.6184 0 56 255
-0.073406965 137.55458 1128.4597 0 136 255
-0.90790689 61.324306 1000.7256 0 0 176
-0.82675463 81.878349 1103.5547 0 72 255
-0.97355783 54.856876 967.51935 0 0 128
-0.97347313 56.124958 967.26813 0 0 128
-0.97013301 57.101845 966.99561 0 0 128
-0.9544425 58.534138 969.69788 0 0 132
-0.96257645 57.5686 965.25177 0 0 128
-0.97544467 58.431725 965.78662 0 0 128
-0.97197992 59.439766 965.62964 0 0 128
-0.96082538 60.140327 963.08496 0 0 128
-0.9577449 60.761734 963.86328 0 0 128
-0.94863975 61.482586 963.56403 0 0 128
-0.94868243 62.229866 963.51422 0 0 128
-0.94596493 62.95039 963.30774 0 0 128
-0.93969154 63.679279 963.1322 0 0 128
-0.91548485 64.410248 962.96674 0 0 128
-0.93011868 65.141754 962.87708 0 0 128
-0.9472146 65.872513 962.77216 0 0 128
-0.95702398 66.601685 962.67407 0 0 128
-0.96446657 67.324371 962.5368 0 0 128
-0.96285993 68.047272 962.38654 0 0 128
-0.96541232 68.774864 962.25153 0 0 128
-0.97066867 69.509453 962.12842 0 0 128
-0.97687721 70.233238 962.00647 0 0 128
-0.98166245 70.96373 961.91241 0 0 128
-0.98539525 71.695618 961.84711 0 0 128
-1.0000848 72.417908 961.77271 0 0 128
-1.0119631 73.140213 961.68274 0 0 128
-1.0102514 73.86824 961.57996 0 0 128
-1.0115826 74.595947 961.48682 0 0 128
-1.0150992 75.328728 961.40735 0 0 128
-1.0213085 76.054985 961.2619 0 0 128
-1.0353359 76.781281 961.22656 0 0 128
-1.033366 77.504875 961.10907 0 0 128
-1.0105067 78.218254 960.97131 0 0 128
-0.98834425 78.943817 960.81287 0 0 128
-0.9928323 79.69265 960.75262 0 0 128
-0.98748589 80.414642 960.633 0 0 128
-0.97410762 81.147362 960.5636 0 0 128
-0.96327955 81.867737 960.44031 0 0 128
-0.95654511 82.591499 960.37036 0 0 128
-0.95342189 83.326363 960.35248 0 0 128
-0.96010906 84.07093 960.66333 0 0 128
-0.93651831 85.0644 963.59698 0 0 132
-0.946931 85.750374 962.94916 0 0 128
-0.95173854 86.481384 962.75806 0 0 128
-0.95480782 87.247169 962.88965 0 0 128
-0.96007407 88.018654 963.22742 0 0 128
-0.96663868 88.768097 963.30414 0 0 128
-0.9610334 89.562805 963.9541 0 0 128
-0.97944468 90.353706 964.52435 0 0 128
-1.0118985 91.1772 965.1297 0 0 128
-1.071021 92.031982 966.54321 0 0 128
-1.1089871 92.90287 967.89551 0 0 128
-1.1159112 93.786522 969.4798 0 0 128
-0.17788813 -89.073624 986.37183 0 0 128
-0.21637599 -88.328308 986.39398 0 0 128
-0.22325207 -87.587311 986.19867 0 0 128
-0.21849476 -86.845001 986.04932 0 0 128
-0.21338834 -86.094818 985.87799 0 0 128
-0.20576388 -85.337868 985.73236 0 0 128
-0.19956781 -84.592644 985.63171 0 0 128
-0.1936845 -83.838631 985.50842 0 0 128
-0.20458707 -83.089806 985.40424 0 0 128
-0.22411336 -82.336296 985.30017 0 0 128
-0.23216362 -81.572334 985.19574 0 0 128
-0.2403482 -80.814201 985.11761 0 0 128
-0.24422415 -80.056694 984.97406 0 0 128
-0.25637898 -79.319687 984.91669 0 0 128
-0.26469779 -78.571121 984.82434 0 0 128
-0.25358161 -77.811958 984.70349 0 0 128
-0.25900847 -77.049911 984.54309 0 0 128
-0.26967108 -76.294838 984.43915 0 0 128
-0.26166952 -75.542671 984.37878 0 0 128
-0.27012527 -74.74588 984.20221 0 0 128
-0.27283758 -74.008125 984.7135 0 0 128
-0.28095236 -73.250664 984.29742 0 0 128
-0.27874678 -72.507729 984.47247 0 0 128
-0.28051376 -71.742157 984.5246 0 0 128
-0.27835423 -70.94873 984.19751 0 0 128
-0.27573586 -70.264503 985.02515 0 0 128
-0.25266212 -69.493484 985.34167 0 0 128
-0.25154221 -68.78643 985.55475 0 0 128
-0.23088603 -68.093323 985.29712 0 0 128
-0.22857855 -67.45887 987.75732 0 0 128
-0.22299759 -66.674423 988.29657 0 0 128
-0.22766404 -65.921135 988.42358 0 0 128
-0.22706619 -65.160217 986.8114 0 0 128
-0.18520872 -64.369171 957.60394 0 0 172
-0.20399961 -63.709415 988.22046 0 0 128
-0.20673275 -63.117767 974.94958 0 0 144
-0.21020311 -62.497425 989.04376 0 0 128
-0.22030441 -61.879555 989.33746 0 0 128
-0.21333152 -61.152565 983.39771 0 0 128
-0.21415009 -61.123474 982.12347 0 0 132
-0.23525089 -58.721989 985.39508 0 0 128
-0.25664124 -57.889263 984.02985 0 0 128
-0.2714375 -57.124966 988.26178 0 0 128
-0.27139968 -54.67625 985.81421 0 0 132
-0.24170105 -55.317501 988.05298 0 0 128
-0.23062101 -55.104763 986.22528 0 0 128
-0.24258089 -54.67215 987.57544 0 0 128
-0.23656978 -54.014191 986.79724 0 0 128
-0.21978894 -53.920567 988.87402 0 0 128
-0.23819986 -52.031872 990.94031 0 0 128
-0.22076263 -51.481403 989.12134 0 0 128
-0.22510457 -50.800266 982.29358 0 0 132
-0.21835285 -49.977322 983.4248 0 0 132
-0.22168784 -49.087505 983.65491 0 0 132
-0.22345693 -48.193844 982.1358 0 0 132
-0.21157642 -47.622181 984.63989 0 0 128
-0.20658433 -46.176758 978.78265 0 0 132
-0.20246229 -45.881058 980.47333 0 0 128
-0.19978164 -45.131409 981.03503 0 0 128
-0.19511946 -44.247765 979.29932 0 0 128
-0.19777717 -43.447968 979.73077 0 0 128
-0.21385662 -42.86871 979.85938 0 0 128
-0.21092421 -42.130348 978.5993 0 0 128
-0.21474595 -41.187119 964.20941 0 0 148
-0.2148931 -39.40667 940.60089 0 0 184
-0.22188812 -38.911758 957.38531 0 0 160
-0.23627165 -38.759346 971.92145 0 0 136
-1.0668377 -23.034292 3217.5569 128 0 0
-0.46898037 -20.35952 1526.3506 255 112 0
-0.47731495 -20.008894 1565.884 255 52 0
-0.46935827 -18.37928 1566.8962 255 52 0
-0.46223167 -16.724262 1562.2528 255 56 0
-0.45520571 -14.694486 1574.1143 255 40 0
-0.45633 -14.150819 1561.597 255 56 0
-0.4407905 -13.833944 1551.6506 255 72 0
-0.46556664 -12.78296 1518.2269 255 120 0
-0.45358118 -13.03205 1490.3966 255 160 0
-0.52438712 -10.148952 1508.0328 255 136 0
-0.65087092 -5.9238458 1564.5068 255 48 0
-0.63028288 -11.13237 1535.396 255 92 0
-0.59951973 -9.6621256 1525.3365 255 108 0
-0.61582828 -21.183163 1550.7125 255 72 0
-0.63942403 -9.6465969 1494.6447 255 152 0
-0.70971578 -10.575688 1469.2618 255 192 0
-0.80601043 -11.261663 1426.3322 255 252 0
-0.88350928 -10.811994 1371.2144 174 255 82
-0.98069018 -13.248647 1294.9005 62 255 194
-1.0679429 -14.972804 1238.2823 0 232 255
-1.1734006 -16.161442 1181.5779 0 148 255
-1.2561135 -15.624392 1143.6075 0 92 255
-1.3380356 -16.93598 1115.3103 0 52 255
-1.3756362 -16.779531 1062.8129 0 0 232
-1.444911 -15.70239 1024.1204 0 0 172
-1.5107348 -15.331534 1025.3658 0 0 176
-1.5602304 -13.883969 1025.2644 0 0 176
-1.4457024 -41.637104 263.80981 128 0 0
-1.4970086 -42.862659 276.25882 128 0 0
-1.6908863 -15.007491 994.26349 0 0 136
-1.7324256 -14.319814 995.14655 0 0 136
-1.7426262 -13.589723 995.79712 0 0 136
-1.7455412 -12.847272 996.02344 0 0 136
-1.7752094 -11.990344 1012.3876 0 0 152
-1.7716755 -11.688719 1016.3502 0 0 156
-1.7921685 -10.051362 1010.8564 0 0 148
-1.7946908 -9.5730305 1007.4035 0 0 144
-1.7955089 -9.1593838 1005.4282 0 0 144
-1.7850282 -8.2475519 1003.2098 0 0 140
-1.7902329 -7.4601731 1000.7066 0 0 140
-1.7959991 -6.8173757 999.19446 0 0 136
-1.8011252 -6.1244936 997.97809 0 0 136
-1.8120793 -5.289259 996.77026 0 0 136
-1.8140006 -4.5338383 998.31073 0 0 140
-1.8131921 -3.7674913 997.52722 0 0 140
-1.8279177 -3.0396624 995.75629 0 0 136
-1.8246267 -2.2441466 995.20917 0 0 136
-1.8168148 -1.5145857 994.9447 0 0 136
-1.8121182 -0.76949126 995.15869 0 0 136
-1.8093462 -0.006374985 995.07843 0 0 136
-1.8038961 0.74342662 994.77484 0 0 136
-1.7868253 1.4460653 993.89325 0 0 136
-1.7910933 2.2716708 993.31757 0 0 136
-1.7830347 2.9973643 992.34979 0 0 136
-1.776974 3.7423372 992.65576 0 0 136
-1.7666569 4.4688416 992.51337 0 0 136
-1.7651796 5.1975741 992.74792 0 0 136
-1.7692662 5.9875026 992.25488 0 0 136
-1.7604643 6.7404394 991.57483 0 0 136
-1.7488701 7.4894099 991.8056 0 0 136
-1.7475858 8.2161417 991.82751 0 0 136
-1.7142235 8.3450346 870.92511 0 40 255
-1.7526822 9.7646236 995.05682 0 0 140
-1.7509058 10.521027 994.97394 0 0 136
-1.7566763 11.277105 995.98151 0 0 140
-1.7584766 12.046997 992.7699 0 0 136
-1.7553703 12.843054 993.38263 0 0 136
-1.7634934 13.593842 996.14514 0 0 140
-1.7589679 14.302855 994.7594 0 0 136
-1.7530789 15.003649 994.39349 0 0 136
-1.7686408 15.736592 993.29706 0 0 136
-1.7671874 16.540707 993.68762 0 0 136
-1.7484145 18.640284 1001.0994 0 0 144
-1.7496186 18.425993 999.3233 0 0 140
-1.7495366 19.359291 997.23425 0 0 136
-1.7373165 19.501417 992.83026 0 0 136
-1.739399 20.22871 992.25232 0 0 136
-1.7440027 20.958458 991.68048 0 0 136
-1.7477987 21.672014 991.14728 0 0 136
-1.7323033 22.344315 990.38654 0 0 136
-1.7073381 23.008646 989.71747 0 0 136
-1.6572492 23.687288 989.02814 0 0 136
-1.6030444 24.337406 988.0946 0 0 136
-1.5497375 24.979042 987.19611 0 0 136
-1.4852674 25.603193 986.19763 0 0 136
-1.4107884 26.244177 985.20032 0 0 136
-1.299875 20.832783 818.61536 0 108 255
-1.2409317 22.852602 894.4989 0 0 248
-1.1492035 27.834061 981.22931 0 0 132
-1.0506994 28.604774 980.72198 0 0 132
-0.95369571 29.343235 980.41986 0 0 132
-0.83225489 30.112556 979.96112 0 0 128
-0.7312423 30.897562 979.54071 0 0 128
-0.62809336 31.680281 979.06421 0 0 128
-0.55587566 32.432755 978.63525 0 0 128
-0.47393063 33.16111 978.21606 0 0 128
-0.42913768 33.90834 977.92902 0 0 128
-0.39534107 34.686779 977.41998 0 0 128
-0.3491421 35.422779 975.1424 0 0 132
-0.30967823 36.324837 977.60577 0 0 128
-0.30020687 37.03566 978.01807 0 0 128
-0.28926009 37.552967 977.35034 0 0 128
-0.26036298 38.345028 976.82666 0 0 128
-0.24351671 39.071068 975.98041 0 0 128
-0.24021399 39.7827 975.46716 0 0 128
-0.24649318 40.52356 976.73969 0 0 128
-0.24923795 41.346771 976.37689 0 0 128
0.12620512 11.55645 -4.8957558 128 0 0
-0.23348932 42.503811 966.68079 0 0 128
-0.22667812 43.228558 966.51776 0 0 128
-0.23013422 43.963821 966.40289 0 0 128
-0.23551539 44.69545 966.18854 0 0 128
-0.23378649 45.491547 966.58826 0 0 128
-0.23271446 46.025524 966.7514 0 0 128
-0.21997814 47.023937 967.23645 0 0 128
-0.21190494 47.910358 967.46661 0 0 128
-0.21924354 48.570305 967.25311 0 0 128
-0.2200084 49.608711 967.85248 0 0 128
-0.2183824 50.544209 967.86841 0 0 128
-0.22244859 51.081806 968.08655 0 0 128
-0.24231331 50.158009 968.69891 0 0 128
-0.226817 51.744289 969.53052 0 0 128
0 0 0 0 0 128
-0.079040445 71.008789 1061.1158 0 8 255
-0.2175615 54.275349 965.9649 0 0 128
-0.2281532 55.541447 967.98712 0 0 128
-0.24133761 56.358009 967.54315 0 0 128
-0.25185242 56.844646 966.01996 0 0 128
-0.23712113 57.309746 966.50909 0 0 128
-0.23982672 57.586628 965.80304 0 0 128
-0.22903253 58.349751 965.84229 0 0 128
-0.21050064 59.510315 965.96399 0 0 128
-0.20622091 60.248466 962.37927 0 0 128
-0.21306777 60.816582 963.78143 0 0 128
-0.21153852 61.489231 963.68744 0 0 128
-0.21202543 62.217644 963.50018 0 0 128
-0.20911556 62.964073 963.43463 0 0 128
-0.19987543 63.697834 963.29675 0 0 128
-0.19724281 64.424507 963.18524 0 0 128
-0.19948313 65.148056 963.03967 0 0 128
-0.20421717 65.877899 962.88434 0 0 128
-0.21745731 66.600754 962.802 0 0 128
-0.21726494 67.32399 962.64178 0 0 128
-0.22696461 68.055901 962.52826 0 0 128
-0.23596877 68.783409 962.38818 0 0 128
-0.24483113 69.518745 962.30121 0 0 128
-0.24732329 70.236923 962.15454 0 0 128
-0.25478679 70.968643 962.0719 0 0 128
-0.2589947 71.703728 961.99878 0 0 128
-0.26969829 72.434013 961.91748 0 0 128
-0.28076056 73.158279 961.849 0 0 128
-0.2877917 73.887039 961.75647 0 0 128
-0.29541695 74.611473 961.67523 0 0 128
-0.29509515 75.340988 961.55353 0 0 128
-0.28960702 76.057159 961.41736 0 0 128
-0.29862687 76.786697 961.34821 0 0 128
-0.30976555 77.511436 961.28015 0 0 128
-0.26890814 78.224335 961.12048 0 0 128
-0.25964969 78.95623 960.98425 0 0 128
-0.24422145 79.694618 960.84399 0 0 128
-0.22494772 80.418015 960.724 0 0 128
-0.22356899 81.152954 960.68353 0 0 128
-0.21603401 81.878693 960.56232 0 0 128
-0.20145951 82.599747 960.48395 0 0 128
-0.20272924 83.289314 960.13239 0 0 128
-0.23361976 84.395279 964.34039 0 0 132
-0.23427153 85.011734 962.93701 0 0 128
-0.22406238 85.773697 963.2616 0 0 128
-0.21928069 86.48735 962.79633 0 0 128
-0.22222161 87.231094 962.74182 0 0 128
-0.22783309 87.99762 962.96002 0 0 128
-0.23911591 88.786369 963.55383 0 0 128
-0.26784879 89.571861 964.13153 0 0 128
-0.2919437 90.361763 964.64819 0 0 128
-0.30047214 91.156281 965.23462 0 0 128
-0.31113687 91.929802 965.66125 0 0 128
-0.36430249 92.918373 968.2713 0 0 128
-0.40974134 93.819519 969.94843 0 0 128
0.58880705 -89.145218 986.80249 0 0 128
0.56772202 -88.350113 986.5542 0 0 128
0.52181339 -87.627678 986.45496 0 0 128
0.53896946 -86.884392 986.23096 0 0 128
0.53596812 -86.129944 986.0907 0 0 128
0.54527289 -85.377441 985.97443 0 0 128
0.5407818 -84.622177 985.84772 0 0 128
0.5406428 -83.870232 985.75018 0 0 128
0.5385803 -83.113319 985.63513 0 0 128
0.52789652 -82.357544 985.49762 0 0 128
0.52405518 -81.596451 985.36615 0 0 128
0.50672823 -80.835342 985.29535 0 0 128
0.49054131 -80.077599 985.19867 0 0 128
0.49110779 -79.339081 985.06354 0 0 128
0.48972782 -78.590126 984.95514 0 0 128
0.49378547 -77.825378 984.81763 0 0 128
0.49078804 -77.074532 984.71405 0 0 128
0.48681796 -76.31913 984.604 0 0 128
0.48428246 -75.560158 984.46332 0 0 128
0.47960258 -74.795662 984.42542 0 0 128
0.48204863 -74.008217 984.33197 0 0 128
0.47665259 -73.276192 984.63879 0 0 128
0.47169501 -72.485146 984.20264 0 0 128
0.46870241 -71.756828 984.34399 0 0 128
0.48308641 -71.017212 985.29797 0 0 128
0.48693046 -70.219284 985.45966 0 0 128
0.49858716 -69.47049 985.58112 0 0 128
0.51641637 -68.790184 985.61633 0 0 128
0.52421153 -68.174141 985.20197 0 0 128
0.51202893 -67.508385 987.53009 0 0 128
0.5234043 -66.729675 987.74896 0 0 128
0.52315825 -65.91275 987.5434 0 0 128
0.52394205 -65.132965 987.18402 0 0 128
0.53223735 -64.355263 985.01654 0 0 132
0.54631317 -63.737881 986.86304 0 0 128
0.52778846 -63.052391 988.12488 0 0 128
0.53907824 -62.282925 988.2016 0 0 128
0.54626417 -61.773205 993.14642 0 0 132
0.53794408 -61.025536 989.26849 0 0 128
0.53944969 -60.46508 989.42926 0 0 128
0.51563442 -58.563442 986.31329 0 0 128
0.50390077 -57.913074 985.37964 0 0 128
0.45094916 -50.249264 982.68994 0 0 140
0.50677025 -56.474888 989.34552 0 0 128
0.51275504 -55.860039 988.81561 0 0 128
0.51507413 -55.094776 988.38776 0 0 128
0.51546335 -54.576057 987.52625 0 0 128
0.50754195 -54.019413 988.3479 0 0 128
0.53357214 -53.455669 986.62817 0 0 128
0.52445608 -52.24646 987.96826 0 0 128
0.50772607 -51.56493 988.5495 0 0 128
0.50723231 -50.65847 985.97766 0 0 128
0.51811963 -49.949902 986.13947 0 0 128
0.51612979 -49.217625 985.25995 0 0 128
0.52587074 -48.567142 985.84363 0 0 128
0.53811097 -47.6735 984.73877 0 0 128
0.5540396 -46.680302 982.29449 0 0 128
0.55287296 -45.87529 981.88739 0 0 128
0.55444467 -45.173717 980.6051 0 0 128
0.5545755 -44.384899 980.54034 0 0 128
0.55184722 -43.614178 980.32745 0 0 128
0.53730637 -42.842422 980.01367 0 0 128
0.52966917 -42.000515 978.79486 0 0 128
0.52727789 -41.405155 979.39716 0 0 128
0.53402907 -40.684212 979.19739 0 0 128
0.52865928 -39.925423 978.83514 0 0 128
0.52470899 -39.076725 977.12189 0 0 128
1.3561906 -13.648267 3161.0264 128 0 0
0.78932405 -33.328411 1624.1123 220 0 0
0.77650082 -24.266178 1645.3077 188 0 0
0.75876832 -17.931261 1635.2831 204 0 0
0.7387476 -15.376955 1586.0966 255 20 0
0.7390188 -12.588859 1570.3088 255 44 0
0.73676997 -11.236174 1575.35 255 36 0
0.75520247 -10.547269 1568.0302 255 48 0
0.70148331 -10.469704 1521.7605 255 116 0
0.67877364 -8.6083832 1508.7792 255 132 0
0.640432 -6.3885369 1509.6152 255 132 0
0.56515038 -2.0575986 1568.4537 255 44 0
0.54830688 -5.2947526 1568.2318 255 44 0
0.5780552 -7.1925097 1543.03 255 80 0
0.52880645 -5.5774097 1488.7247 255 160 0
0.51372498 -8.493165 1506.172 255 136 0
0.42267147 -6.9873013 1477.588 255 176 0
0.30795223 -7.5950918 1432.0005 255 244 0
0.18210407 -7.3666563 1385.1613 198 255 58
0.030371118 -12.723492 1289.8809 54 255 202
-0.12615132 -13.354842 1228.9504 0 220 255
-0.2650587 -14.011214 1187.8237 0 160 255
-0.38294399 -14.49478 1142.7424 0 92 255
-0.47081155 -14.932342 1121.3398 0 60 255
