ply
format ascii 1.0
comment PCL generated
element vertex 1222
property float x
property float y
property float z
property uchar red
property uchar green
property uchar blue
element face 0
element camera 0
property float view_px
property float view_py
property float view_pz
property float x_axisx
property float x_axisy
property float x_axisz
property float y_axisx
property float y_axisy
property float y_axisz
property float z_axisx
property float z_axisy
property float z_axisz
property float focal
property float scalex
property float scaley
property float centerx
property float centery
property int viewportx
property int viewporty
property float k1
property float k2
end_header
-24.091537 -51.004677 975.66156 0 0 128
-24.100708 -50.249809 975.42822 0 0 128
-24.094219 -49.494781 975.32263 0 0 128
-24.081676 -48.744854 975.24451 0 0 128
-24.080149 -47.967937 975.17035 0 0 128
-24.084333 -47.18034 975.01215 0 0 128
-24.062958 -46.429626 974.83264 0 0 128
-24.066172 -45.675091 974.75073 0 0 128
-24.04405 -44.911037 974.60254 0 0 128
-24.072355 -44.15527 974.56104 0 0 128
-24.080679 -43.412521 974.49225 0 0 128
-24.085218 -42.655128 974.42664 0 0 128
-24.070541 -41.907436 974.2995 0 0 128
-24.061029 -41.146515 974.13177 0 0 128
-24.026575 -40.392483 973.99933 0 0 128
-24.011486 -39.6413 973.9201 0 0 128
-23.972111 -38.906139 973.77264 0 0 128
-23.974468 -38.164028 973.69312 0 0 128
-24.002708 -37.42382 973.6601 0 0 128
-24.000326 -36.678371 973.64227 0 0 128
-23.98098 -35.932934 973.51392 0 0 128
-23.957727 -35.202255 973.34821 0 0 128
-23.942511 -34.463116 973.20154 0 0 128
-23.938913 -33.73164 973.05865 0 0 128
-23.927078 -33.00362 972.88977 0 0 128
-23.919107 -32.244244 972.64764 0 0 128
-23.917593 -31.503269 972.55621 0 0 128
-23.890242 -30.722013 972.41888 0 0 128
-23.902317 -30.000891 972.38715 0 0 128
-23.921339 -29.301252 972.44458 0 0 128
-43.634987 -133.67152 1778.4542 10 255 246
-45.418861 -140.8432 1849.6599 46 255 210
-46.700039 -144.58812 1898.2832 70 255 186
-80.994385 -354.01782 3300.3945 128 0 0
-79.544579 -343.67325 3236.5637 128 0 0
-82.258789 -365.68814 3338.1321 128 0 0
-82.059853 -363.2254 3316.1899 128 0 0
-78.731064 -359.22079 3174.2126 128 0 0
-77.765594 -366.1427 3126.9128 128 0 0
-57.773106 -244.5515 2308.5518 255 232 0
-52.846317 -219.10873 2103.718 174 255 82
-51.790409 -213.19066 2056.3308 154 255 102
-50.765987 -205.32874 2011.5172 130 255 126
-49.745815 -195.45332 1964.6719 106 255 150
-49.748985 -194.75818 1958.8071 102 255 154
-49.67799 -196.94348 1946.9012 98 255 158
-50.039551 -203.18092 1954.3528 102 255 154
-50.195869 -208.15891 1951.0792 102 255 154
-49.651768 -213.65874 1920.9094 86 255 170
-50.259716 -219.25566 1938.9838 98 255 158
-56.381645 -270.29437 2175.314 218 255 38
-57.695183 -293.81091 2220.0149 242 255 14
-19.797098 -12.620265 685.48065 0 16 255
-18.572271 -11.719217 628.81476 0 44 255
-17.728861 -7.6844869 592.57642 0 60 255
-17.243055 1.556477 571.81573 0 72 255
-12.615713 9.3190603 379.56268 0 164 255
-8.8963861 9.5957718 224.44528 0 240 255
-6.7697806 9.9115953 138.07986 30 255 226
-5.7262459 29.014328 95.647026 50 255 206
-5.3461957 24.641283 76.410751 62 255 194
-4.595108 23.482626 46.601784 74 255 182
-28.259834 -1.6905475 1002.1584 0 0 136
-28.345819 -0.92418355 1001.8114 0 0 136
-28.453705 -0.18882903 1001.738 0 0 136
-28.491991 0.59142119 1001.9784 0 0 136
-28.51936 1.3441037 1002.3273 0 0 136
-28.530434 2.073813 1002.6583 0 0 136
-28.538675 2.813117 1002.4898 0 0 136
-28.558317 3.5671599 1002.2185 0 0 136
-28.526524 4.2753954 1001.7997 0 0 136
-28.453436 4.9557519 1001.5864 0 0 136
-28.412613 5.6616058 1001.4954 0 0 136
-28.380823 6.384201 1001.4963 0 0 136
-28.318712 7.118433 1001.1655 0 0 136
-28.300583 7.8425512 1000.9152 0 0 136
-28.261503 8.5801926 1000.1058 0 0 136
-28.208563 9.2785311 999.5827 0 0 136
-28.148325 9.9790773 999.03619 0 0 136
-28.085342 10.682816 999.02936 0 0 136
-28.040768 11.359571 998.40759 0 0 136
-27.960705 12.017567 997.3999 0 0 136
-27.797163 12.716313 996.65778 0 0 136
-27.69569 13.371709 996.07507 0 0 136
-27.544813 14.006892 995.86652 0 0 136
-27.412563 14.62802 995.5882 0 0 136
-27.205467 15.239907 994.87189 0 0 136
-27.053314 15.743008 993.55847 0 0 136
-26.84601 16.174004 991.72455 0 0 136
-19.670956 20.158821 709.72473 0 0 255
-26.577959 17.105803 994.3338 0 0 136
-26.362234 17.732204 990.88232 0 0 136
-26.278744 18.069086 996.49402 0 0 136
-26.031969 18.631426 993.05176 0 0 136
-25.718374 19.507053 988.487 0 0 132
-25.503408 19.942667 985.45874 0 0 132
-25.270981 20.705826 983.57098 0 0 132
-25.064846 21.319057 981.9502 0 0 132
-24.845053 21.864134 979.83197 0 0 128
-24.67363 22.524782 976.85352 0 0 128
-24.573898 23.282557 975.74902 0 0 128
-24.413879 24.09412 973.22461 0 0 128
-24.334345 24.881573 972.54132 0 0 128
-24.070873 24.39835 965.448 0 0 132
-24.151548 26.029102 971.76868 0 0 128
-24.095592 26.808117 972.34711 0 0 128
-24.019474 27.895107 973.07471 0 0 128
54.838726 -84.699265 -2232.7075 128 0 0
-23.761478 28.684679 962.10083 0 0 128
-23.750935 29.598864 962.53729 0 0 128
-23.759489 30.544744 963.53473 0 0 128
-23.809469 31.316896 963.57727 0 0 128
-23.763617 31.97826 962.99231 0 0 128
-23.715214 32.773167 963.03058 0 0 128
-23.643343 33.568218 962.74713 0 0 128
-23.634901 34.247551 962.53986 0 0 128
-23.644934 34.949738 962.39899 0 0 128
-23.661858 35.711807 962.39563 0 0 128
-23.653744 36.447445 962.25476 0 0 128
-23.662048 37.197292 962.18835 0 0 128
-23.64362 37.943027 962.01514 0 0 128
-23.649008 38.694435 961.97516 0 0 128
-23.648746 39.396175 961.86133 0 0 128
-23.620209 40.11898 961.7066 0 0 128
-23.632833 40.856327 961.58636 0 0 128
-23.63138 41.598091 961.51178 0 0 128
-23.601673 42.337898 961.36664 0 0 128
-23.600307 43.107643 961.26471 0 0 128
-23.559694 43.851978 961.11487 0 0 128
-23.530453 44.581886 960.90485 0 0 128
-23.557663 45.318398 960.82092 0 0 128
-23.595396 46.01112 960.75781 0 0 128
-23.627729 46.722679 961.00452 0 0 128
-23.622229 47.496471 961.13269 0 0 128
-23.658222 48.296101 961.39343 0 0 128
-23.921391 49.299355 971.99597 0 0 132
0 0 0 0 0 128
0 0 0 0 0 128
0 0 0 0 0 128
0 0 0 0 0 128
0 0 0 0 0 128
0 0 0 0 0 128
0 0 0 0 0 128
0 0 0 0 0 128
0 0 0 0 0 128
0 0 0 0 0 128
-23.544762 62.394394 962.33099 0 0 132
-23.191542 60.760826 947.24969 0 0 132
-23.283642 62.376816 950.02771 0 0 132
-23.348112 60.755726 951.23505 0 0 132
-22.958509 61.353271 938.94629 0 0 136
-23.463509 60.273026 959.75055 0 0 128
-23.128269 61.09874 946.7605 0 0 132
-23.386072 61.558319 955.57007 0 0 128
-23.362257 62.7257 956.49927 0 0 128
-23.386881 63.633659 957.55151 0 0 128
-23.360359 64.412224 957.8949 0 0 128
-23.363005 65.188492 957.91296 0 0 128
-23.362835 66.048782 958.17383 0 0 128
-23.337643 66.763107 957.98401 0 0 128
-23.290516 67.345207 957.58997 0 0 128
-23.319775 68.012062 957.24615 0 0 128
-23.260098 68.641518 956.73706 0 0 128
-23.321972 69.335846 956.67847 0 0 128
-23.302513 70.105309 956.60742 0 0 128
-23.282309 70.910721 956.72675 0 0 128
-23.396011 71.574051 956.76093 0 0 128
-23.389172 72.332298 956.77087 0 0 128
-23.425035 73.102409 957.05035 0 0 128
-23.484737 73.749062 956.93237 0 0 128
-23.441605 74.360817 956.50037 0 0 128
-23.365986 75.135368 956.46533 0 0 128
-23.303013 75.839569 956.33588 0 0 128
-23.376396 76.566032 956.35687 0 0 128
-23.447332 77.31218 956.32263 0 0 128
-23.432125 78.042397 956.14502 0 0 128
-23.462978 78.766312 956.10815 0 0 128
-23.441257 79.609108 956.24548 0 0 128
-23.527061 80.345749 956.20758 0 0 128
-23.514565 81.059113 956.13702 0 0 128
-23.489414 81.763893 956.00385 0 0 128
-23.495573 82.448784 955.85004 0 0 128
-23.521835 83.208572 955.82819 0 0 128
-23.527357 83.896141 955.55688 0 0 128
-23.569719 84.622574 955.75006 0 0 128
-23.659708 85.407097 956.61932 0 0 128
-23.712809 86.173424 957.32483 0 0 128
-23.697233 87.056519 958.83112 0 0 128
-23.793989 87.99633 960.82727 0 0 128
-23.74815 88.987251 962.13422 0 0 128
-23.716993 89.881645 962.72803 0 0 128
-23.629208 90.175446 959.3045 0 0 128
-23.424784 89.003075 952.78455 0 0 128
-53.657639 197.48906 2171.5435 214 255 42
-55.723907 212.46928 2260.4458 255 252 0
-47.505783 189.85011 1933.3512 98 255 158
0 0 0 0 0 128
-23.547274 -88.897141 980.99261 0 0 128
-23.439281 -88.072266 980.81244 0 0 128
-23.300335 -87.22303 980.43536 0 0 128
-23.292545 -86.467064 980.34448 0 0 128
-23.310612 -85.691521 980.30096 0 0 128
-23.384844 -84.940125 980.29932 0 0 128
-23.437168 -84.20919 980.4035 0 0 128
-23.423271 -83.433273 980.26709 0 0 128
-23.438318 -82.678291 980.22461 0 0 128
-23.452324 -81.911873 980.1601 0 0 128
-23.423687 -81.126114 980.04419 0 0 128
-23.42141 -80.371506 979.93866 0 0 128
-23.487823 -79.618637 980.06415 0 0 128
-23.488295 -78.870789 980.02466 0 0 128
-23.444639 -78.12149 979.83722 0 0 128
-23.468569 -77.383842 979.84491 0 0 128
-23.455694 -76.626549 979.68518 0 0 128
-23.467531 -75.890358 979.51532 0 0 128
-23.457399 -75.120293 979.34961 0 0 128
-23.44166 -74.354919 979.26666 0 0 128
-23.432236 -73.603767 979.09546 0 0 128
-23.405674 -72.86071 978.94025 0 0 128
-23.388281 -72.075775 978.84778 0 0 128
-23.373501 -71.319717 978.71643 0 0 128
-23.361708 -70.56617 978.59204 0 0 128
-23.339886 -69.832619 978.45264 0 0 128
-23.356251 -69.065819 978.38293 0 0 128
-23.341883 -68.313202 978.22754 0 0 128
-23.338293 -67.558083 978.13068 0 0 128
-23.350225 -66.81868 978.0946 0 0 128
-23.363495 -66.087227 977.96588 0 0 128
-23.347759 -65.325294 977.77625 0 0 128
-23.363586 -64.574226 977.70416 0 0 128
-23.34413 -63.808289 977.44421 0 0 128
-23.379297 -63.070061 977.33063 0 0 128
-23.33783 -62.303165 977.30084 0 0 128
-23.323139 -61.578827 977.26758 0 0 128
-23.345203 -60.825317 977.30469 0 0 128
-23.358746 -60.083431 977.43628 0 0 128
-23.372892 -59.337727 977.31012 0 0 128
-23.349825 -58.59621 977.30365 0 0 128
-23.349483 -57.797211 977.07458 0 0 128
-23.354332 -56.981155 976.83368 0 0 128
-23.363962 -56.322838 977.28967 0 0 128
-23.393679 -55.559055 977.04187 0 0 128
-23.369072 -54.819798 976.94543 0 0 128
-23.382162 -54.086559 976.94958 0 0 128
-23.372822 -53.329067 976.75018 0 0 128
-23.343893 -52.566154 976.32892 0 0 128
-23.325966 -51.813046 976.12665 0 0 128
-23.325632 -51.021889 975.89105 0 0 128
-23.347668 -50.266491 975.58569 0 0 128
-23.353148 -49.528111 975.4425 0 0 128
-23.341942 -48.75618 975.3761 0 0 128
-23.359137 -47.990261 975.29315 0 0 128
-23.354334 -47.207905 975.19678 0 0 128
-23.331482 -46.449448 975.06018 0 0 128
-23.340281 -45.690151 974.91418 0 0 128
-23.33215 -44.924515 974.77448 0 0 128
-23.333118 -44.170673 974.69379 0 0 128
-23.324635 -43.426304 974.58606 0 0 128
-23.330658 -42.684799 974.50586 0 0 128
-23.32206 -41.929672 974.44147 0 0 128
-23.294418 -41.188015 974.28485 0 0 128
-23.292606 -40.425488 974.21503 0 0 128
-23.272211 -39.66584 974.09967 0 0 128
-23.265768 -38.928211 974.00201 0 0 128
-23.268145 -38.192188 973.92389 0 0 128
-23.250536 -37.44883 973.82068 0 0 128
-23.256184 -36.692558 973.7356 0 0 128
-23.237612 -35.953129 973.67902 0 0 128
-23.21843 -35.209122 973.52911 0 0 128
-23.20982 -34.484398 973.39044 0 0 128
-23.188589 -33.748051 973.18408 0 0 128
-23.185612 -33.016979 973.02618 0 0 128
-23.197767 -32.280167 972.94867 0 0 128
-23.194334 -31.52408 972.7796 0 0 128
-23.178759 -30.771967 972.81305 0 0 128
-23.158522 -30.014606 972.62982 0 0 128
-23.172235 -29.295958 972.52643 0 0 128
-37.773258 -98.768326 1584.9612 0 168 255
-43.498207 -124.94209 1824.761 34 255 222
-44.077171 -127.1039 1845.9287 42 255 214
-42.463631 -117.36794 1775.3876 10 255 246
-81.276001 -351.31036 3404.0264 128 0 0
-70.249947 -303.26553 2930.9197 184 0 0
-73.128944 -313.98569 3039.8193 128 0 0
-74.848885 -321.06967 3103.6265 128 0 0
-76.197876 -352.12064 3151.4792 128 0 0
-51.10532 -189.64212 2097.1804 170 255 86
-52.041084 -207.14812 2129.3186 186 255 70
-50.78651 -202.74417 2077.4958 162 255 94
-50.707756 -207.18922 2068.5244 158 255 98
-49.40007 -197.28558 2003.751 126 255 130
-47.731411 -190.01494 1925.5032 86 255 170
-47.67577 -190.87578 1914.2421 82 255 174
-47.794945 -194.54236 1908.6971 78 255 178
-63.705444 -375.21713 2562.1316 255 96 0
-58.549793 -381.41418 2335.8545 255 204 0
-56.011127 -379.22253 2220.8804 250 255 6
-60.686317 -443.42975 2406.2732 255 164 0
-17.488234 -18.50136 606.96649 0 52 255
-17.310324 -14.15689 593.81226 0 60 255
-16.220739 -9.6200113 542.03424 0 84 255
-13.846048 -8.2332058 439.87393 0 136 255
-10.895254 -10.093732 314.07181 0 196 255
-8.3113394 7.058403 202.89507 0 252 255
-6.3901529 10.126457 119.25636 38 255 218
-4.3963385 19.475349 34.148983 82 255 174
-2.9093003 26.123425 -29.695198 114 255 142
-27.725386 -3.123009 1002.3675 0 0 136
-27.73724 -2.3434813 1002.6182 0 0 136
-27.785692 -1.6295555 1002.8974 0 0 136
-27.813059 -0.89930248 1002.7386 0 0 136
-27.876583 -0.095708512 1002.7409 0 0 136
-27.926971 0.65279055 1003.3176 0 0 136
-27.961 1.4226825 1003.3188 0 0 136
-28.043566 2.1411104 1003.4627 0 0 136
-28.078381 2.8759382 1003.4884 0 0 136
-28.070017 3.6522496 1003.2863 0 0 136
-28.021679 4.3934898 1002.9169 0 0 136
-28.009386 5.1357613 1002.7868 0 0 136
-27.966591 5.8474607 1002.8016 0 0 136
-27.91231 6.5751448 1002.7114 0 0 136
-27.853613 7.276124 1002.0578 0 0 136
-27.789436 8.0021038 1001.583 0 0 136
-27.781876 8.7417536 1001.4636 0 0 136
-27.709436 9.4679108 1001.0372 0 0 136
-27.646732 10.166852 1000.6238 0 0 136
-27.578062 10.874356 1000.6713 0 0 136
-27.52927 11.525322 1000.1973 0 0 136
-27.443884 12.191894 999.2793 0 0 136
-27.331448 12.871541 998.15723 0 0 136
-27.185917 13.54021 997.41718 0 0 136
-27.076717 14.206915 997.06854 0 0 136
-26.859571 14.837889 995.90747 0 0 136
-26.731157 15.404316 995.68866 0 0 136
-26.546469 15.989492 994.1626 0 0 136
-26.32176 16.516006 992.58069 0 0 136
-33.257561 16.800951 1286.973 0 24 255
-17.384586 20.056379 632.68201 0 40 255
-20.561548 16.888237 773.6554 0 0 224
-25.745901 17.942564 996.24133 0 0 136
-25.496563 19.178619 992.88556 0 0 136
-25.290485 19.455956 990.80853 0 0 136
-24.99365 20.106903 987.68225 0 0 132
-24.766109 20.788015 985.39081 0 0 132
-24.494947 21.372372 983.37225 0 0 132
-24.234474 21.908236 981.10828 0 0 128
-24.040524 22.429369 979.2193 0 0 128
-23.907324 23.088875 977.49481 0 0 128
-23.825104 23.97838 976.85211 0 0 128
-23.653851 24.759792 972.81268 0 0 128
-23.408342 25.653412 968.02478 0 0 128
-23.295757 26.238169 963.97949 0 0 132
-23.385437 26.416273 971.94995 0 0 128
-23.319368 27.632498 972.14868 0 0 128
-23.339649 28.839285 974.09131 0 0 128
-23.007429 28.435843 960.53937 0 0 128
-23.036215 29.313667 962.64539 0 0 128
-23.036474 30.395769 963.84991 0 0 128
-23.038101 31.447525 964.10535 0 0 128
-22.994535 32.098785 963.64044 0 0 128
-22.940132 32.774273 963.1449 0 0 128
-22.948185 33.59478 963.12238 0 0 128
-22.919535 34.250317 962.65533 0 0 128
-22.885464 34.97554 962.47473 0 0 128
-22.909477 35.691177 962.46582 0 0 128
-22.91428 36.449863 962.39673 0 0 128
-22.913757 37.183758 962.28961 0 0 128
-22.937061 37.948811 962.22382 0 0 128
-22.928593 38.692211 962.13458 0 0 128
-22.929562 39.418594 961.99353 0 0 128
-22.933716 40.137222 961.94 0 0 128
-22.940405 40.856903 961.87158 0 0 128
-22.894077 41.590004 961.64667 0 0 128
-22.854475 42.349312 961.41779 0 0 128
-22.847715 43.112778 961.35889 0 0 128
-22.812521 43.834999 961.19885 0 0 128
-22.822285 44.584999 961.08594 0 0 128
-22.823013 45.297268 960.8327 0 0 128
-22.826607 46.00959 960.77478 0 0 128
-22.881826 46.719296 960.97888 0 0 128
-22.910627 47.476692 961.20856 0 0 128
-22.908833 48.260098 961.17841 0 0 128
-22.988785 49.37492 965.77899 0 0 128
-23.628996 52.262341 991.81305 0 0 144
0 0 0 0 0 128
0 0 0 0 0 128
0 0 0 0 0 128
0 0 0 0 0 128
0 0 0 0 0 128
0 0 0 0 0 128
0 0 0 0 0 128
0 0 0 0 0 128
-22.942955 59.25626 965.30121 0 0 132
-23.000546 63.079868 967.94556 0 0 132
-22.904072 59.023918 960.42566 0 0 128
-22.698322 59.639099 953.94562 0 0 128
-22.361862 57.15152 936.99158 0 0 136
-22.707043 59.774975 954.3208 0 0 128
-22.763395 60.418507 958.97009 0 0 128
-22.253784 60.828083 941.72388 0 0 132
-22.631092 61.513596 956.48907 0 0 128
-22.62978 62.834183 957.638 0 0 128
-22.673429 63.609047 958.17401 0 0 128
-22.719076 64.407562 958.21466 0 0 128
-22.717379 65.21196 958.24353 0 0 128
-22.645452 65.955986 958.18945 0 0 128
-22.552116 66.659111 957.92816 0 0 128
-22.63822 67.373207 957.82776 0 0 128
-22.711929 68.016586 957.62665 0 0 128
-22.583555 68.682076 957.14978 0 0 128
-22.568483 69.372879 956.93042 0 0 128
-22.571936 70.115593 956.83929 0 0 128
-22.625868 70.913567 957.02808 0 0 128
-22.663054 71.6157 956.95337 0 0 128
-22.663349 72.309464 956.94122 0 0 128
-22.711088 73.127991 957.3255 0 0 128
-22.705467 73.757957 957.10394 0 0 128
-22.771631 74.543518 957.26794 0 0 128
-22.745817 75.242348 957.17175 0 0 128
-22.615059 75.921387 956.61694 0 0 128
-22.61841 76.609718 956.46741 0 0 128
-22.705194 77.361801 956.46075 0 0 128
-22.748074 78.102921 956.4281 0 0 128
-22.750698 78.875298 956.49097 0 0 128
-22.754808 79.677361 956.50214 0 0 128
-22.73988 80.352837 956.36914 0 0 128
-22.791384 81.053329 956.30261 0 0 128
-22.801178 81.761177 956.08972 0 0 128
-22.800316 82.494934 956.12085 0 0 128
-22.792559 83.183205 955.7876 0 0 128
-22.862335 83.880295 955.68604 0 0 128
-22.883497 84.634514 955.99176 0 0 128
-22.958872 85.391052 956.46161 0 0 128
-22.954418 86.165321 957.104 0 0 128
-22.946924 87.005249 958.23413 0 0 128
-23.042253 87.943207 960.3764 0 0 128
-23.039412 88.952995 962.37787 0 0 128
-23.035372 89.873772 963.1015 0 0 132
-22.969889 90.636612 962.20959 0 0 128
-22.897602 90.608078 959.17731 0 0 128
-55.189365 211.97658 2304.8679 255 228 0
-60.125732 229.21181 2505.2837 255 128 0
-51.364079 208.98013 2147.3501 202 255 54
-48.950439 215.42316 2061.5857 162 255 94
-22.824554 -88.890472 981.19043 0 0 128
-22.699591 -88.033379 981.11798 0 0 128
-22.579882 -87.251167 980.59625 0 0 128
-22.551037 -86.453117 980.51086 0 0 128
-22.553638 -85.690903 980.47742 0 0 128
-22.580357 -84.950462 980.33154 0 0 128
-22.620785 -84.207802 980.37262 0 0 128
-22.640276 -83.461006 980.34613 0 0 128
-22.685444 -82.683807 980.30823 0 0 128
-22.690153 -81.928131 980.29895 0 0 128
-22.69479 -81.16951 980.20447 0 0 128
-22.697483 -80.3759 980.11505 0 0 128
-22.712702 -79.666969 980.15155 0 0 128
-22.738897 -78.904243 980.18787 0 0 128
-22.729868 -78.165642 980.11469 0 0 128
-22.71328 -77.406013 980.08154 0 0 128
-22.713018 -76.646431 979.94421 0 0 128
-22.720791 -75.869034 979.7146 0 0 128
-22.712627 -75.111504 979.5799 0 0 128
-22.694721 -74.363556 979.37665 0 0 128
-22.688999 -73.607758 979.30408 0 0 128
-22.662973 -72.863846 979.16046 0 0 128
-22.648064 -72.099457 979.0451 0 0 128
-22.647436 -71.342033 978.95288 0 0 128
-22.595146 -70.582588 978.70953 0 0 128
-22.563814 -69.84964 978.64484 0 0 128
-22.605516 -69.097679 978.5863 0 0 128
-22.611462 -68.333717 978.45459 0 0 128
-22.596989 -67.575859 978.2962 0 0 128
-22.584702 -66.820084 978.15527 0 0 128
-22.593321 -66.085785 978.01886 0 0 128
-22.598644 -65.329292 977.79858 0 0 128
-22.596073 -64.565689 977.66669 0 0 128
-22.62413 -63.835026 977.604 0 0 128
-22.601202 -63.126366 977.495 0 0 128
-22.573275 -62.344044 977.43726 0 0 128
-22.579491 -61.611595 977.58392 0 0 128
-22.606668 -60.890518 977.68604 0 0 128
-22.611359 -60.150032 977.75085 0 0 128
-22.622593 -59.365715 977.66687 0 0 128
-22.611706 -58.620052 977.71497 0 0 128
-22.610193 -57.772095 977.3125 0 0 128
-22.611382 -56.991306 977.04449 0 0 128
-22.61746 -56.337044 977.078 0 0 128
-22.636595 -55.598076 977.0722 0 0 128
-22.632069 -54.850277 977.05524 0 0 128
-22.65378 -54.133411 977.05853 0 0 128
-22.625198 -53.336266 976.48065 0 0 128
-22.616852 -52.611324 976.51947 0 0 128
-22.590139 -51.86488 976.35547 0 0 128
-22.591988 -51.074749 976.17993 0 0 128
-22.605467 -50.282124 976.01611 0 0 128
-22.626575 -49.506279 975.7193 0 0 128
-22.611389 -48.76445 975.59534 0 0 128
-22.625696 -48.002823 975.57544 0 0 128
-22.624287 -47.219601 975.39441 0 0 128
-22.622774 -46.462391 975.27203 0 0 128
-22.599136 -45.687164 975.06366 0 0 128
-22.5951 -44.92337 974.91156 0 0 128
-22.596375 -44.201366 974.82751 0 0 128
-22.581284 -43.446884 974.7027 0 0 128
-22.562586 -42.701096 974.55353 0 0 128
-22.557037 -41.949348 974.49597 0 0 128
-22.545841 -41.210331 974.4118 0 0 128
-22.54248 -40.444233 974.32886 0 0 128
-22.538355 -39.685474 974.23083 0 0 128
-22.550781 -38.941853 974.20746 0 0 128
-22.536278 -38.203999 974.10059 0 0 128
-22.521933 -37.457302 973.9668 0 0 128
-22.520134 -36.710075 973.86829 0 0 128
-22.504585 -35.959743 973.79553 0 0 128
-22.482012 -35.22485 973.66357 0 0 128
-22.45845 -34.50444 973.4989 0 0 128
-22.455078 -33.76572 973.39728 0 0 128
-22.440338 -33.020721 973.17645 0 0 128
-22.442957 -32.292698 973.12616 0 0 128
-22.43557 -31.539 972.99445 0 0 128
-22.43931 -30.801722 972.97058 0 0 128
-22.462669 -30.066036 972.89124 0 0 128
-22.440125 -29.319466 972.76099 0 0 128
-35.825935 -96.090782 1552.6722 0 152 255
-39.417629 -109.4038 1706.7754 0 228 255
-42.263641 -118.55539 1826.6678 34 255 222
-46.373543 -140.36633 1997.5479 118 255 138
-62.134029 -251.04005 2678.3364 255 52 0
-63.390759 -263.50323 2722.1145 255 32 0
-67.125359 -283.08316 2872.9097 212 0 0
-70.101212 -308.37131 2994.1929 152 0 0
-71.876053 -343.905 3066.3103 128 0 0
-49.278557 -189.89615 2081.3733 162 255 94
-50.089455 -196.93491 2117.6909 178 255 78
-49.115952 -199.49751 2068.8181 158 255 98
-48.485344 -197.1349 2032.791 138 255 118
-48.202385 -191.02954 2006.7306 126 255 130
-45.301785 -183.60886 1870.5074 58 255 198
-46.105835 -190.83362 1896.6122 74 255 182
-64.118965 -354.63968 2662.5588 255 52 0
-62.058842 -364.11285 2563.1526 255 96 0
-59.487194 -358.95517 2441.6052 255 156 0
-58.635021 -361.50244 2398.3914 255 176 0
-16.13139 -22.789911 565.74017 0 72 255
-16.15296 -19.416115 560.2641 0 76 255
-15.463857 -8.0062504 524.69464 0 92 255
-12.596648 -14.026537 394.02875 0 160 255
-10.515732 -15.462016 301.66113 0 204 255
-7.6777945 -12.962639 175.66023 10 255 246
-5.9004703 -14.65513 92.181625 54 255 202
-3.5583866 17.690081 -8.8757305 102 255 154
-27.030132 -4.6748075 1002.7717 0 0 136
-27.125803 -3.8706403 1002.8367 0 0 136
-27.15402 -3.0928102 1002.8191 0 0 136
-27.22052 -2.3017006 1003.2997 0 0 136
-27.262388 -1.5468653 1003.5637 0 0 136
-27.320084 -0.78790569 1003.7143 0 0 136
-27.338243 -0.063105039 1003.8005 0 0 136
-27.379902 0.73708689 1003.9961 0 0 136
-27.460844 1.5271879 1004.428 0 0 136
-27.47809 2.2856355 1004.3411 0 0 136
-27.471598 3.0065689 1004.1367 0 0 136
-27.491924 3.7381911 1004.0943 0 0 136
-27.46096 4.5181017 1003.7609 0 0 136
-27.444548 5.2378521 1003.715 0 0 136
-27.422834 5.9828196 1003.9842 0 0 136
-27.447741 6.7130623 1004.0274 0 0 136
-27.420019 7.4136534 1003.5236 0 0 136
-27.327719 8.1296864 1002.9413 0 0 136
-27.278959 8.856535 1002.7929 0 0 136
-27.235142 9.6040955 1002.5573 0 0 136
-27.163094 10.276277 1002.1688 0 0 136
-27.101545 11.01864 1002.3709 0 0 136
-27.000814 11.6719 1001.6656 0 0 136
-26.901705 12.347737 1000.7125 0 0 136
-26.81525 13.029948 1000.0107 0 0 136
-26.660795 13.674909 999.22913 0 0 136
-26.517122 14.315568 998.50439 0 0 136
-26.423954 14.975171 997.43915 0 0 136
-26.221397 15.573311 996.48291 0 0 136
-26.077677 16.175474 995.60986 0 0 136
-26.015888 16.890478 1000.8585 0 0 136
-24.207022 17.806749 929.48608 0 0 148
-23.785633 20.64253 919.86298 0 0 152
-16.874598 21.665232 630.86389 0 40 255
-20.433512 21.004112 792.04041 0 0 216
-25.025881 18.982038 996.32623 0 0 136
-24.810217 20.137783 994.51215 0 0 136
-24.476715 20.176378 988.47357 0 0 132
-24.199812 20.838049 987.42529 0 0 132
-23.973631 21.523069 985.6131 0 0 132
-23.731726 22.036007 984.15314 0 0 132
-23.504217 22.683643 981.61847 0 0 128
-23.30534 23.315449 979.85181 0 0 128
-23.184677 24.118273 978.18115 0 0 128
-23.06465 24.876884 975.32965 0 0 128
-22.883434 25.749289 972.10522 0 0 128
-22.658028 26.483 965.5766 0 0 132
-22.642294 26.38698 967.81714 0 0 128
-22.623087 27.384529 972.1366 0 0 128
-22.667822 28.449518 973.93262 0 0 128
-22.582323 29.670595 973.80786 0 0 128
-22.337753 29.363386 962.38171 0 0 128
-22.312117 30.297714 963.72559 0 0 128
-22.294752 31.319054 964.03503 0 0 128
-22.278419 32.152447 964.19171 0 0 128
-22.223019 32.803352 963.44183 0 0 128
-22.210443 33.556286 963.349 0 0 128
-22.219961 34.201565 962.96936 0 0 128
-22.192598 34.956001 962.72137 0 0 128
-22.210026 35.686329 962.69177 0 0 128
-22.21892 36.432152 962.67004 0 0 128
-22.20505 37.171543 962.50708 0 0 128
-22.216183 37.943043 962.40088 0 0 128
-22.191858 38.689346 962.31427 0 0 128
-22.21829 39.41214 962.16925 0 0 128
-22.206671 40.129486 962.05615 0 0 128
-22.198383 40.838844 962.01868 0 0 128
-22.170433 41.588379 961.86023 0 0 128
-22.155659 42.342739 961.66663 0 0 128
-22.127258 43.09301 961.51715 0 0 128
-22.11364 43.837433 961.35077 0 0 128
-22.100878 44.577084 961.20282 0 0 128
-22.098186 45.296349 961.16748 0 0 128
-22.083517 46.035885 960.96484 0 0 128
-22.112041 46.733772 960.96552 0 0 128
-22.139194 47.500935 961.53284 0 0 128
-22.120436 48.245232 961.8642 0 0 128
-22.216057 49.238197 964.46771 0 0 128
-23.041531 53.134907 1001.803 0 0 148
0 0 0 0 0 128
0 0 0 0 0 128
0 0 0 0 0 128
0 0 0 0 0 128
0 0 0 0 0 128
0 0 0 0 0 128
0 0 0 0 0 128
0 0 0 0 0 128
-22.179142 55.954933 962.91602 0 0 128
-22.129932 56.396675 959.44653 0 0 128
-22.244886 57.406879 961.62067 0 0 128
-22.120115 59.504688 957.38947 0 0 128
-22.162888 59.081383 959.87659 0 0 128
-22.015125 59.810116 955.92029 0 0 128
-21.837761 59.466183 949.03357 0 0 132
-21.918129 60.815514 957.49139 0 0 128
-21.983313 62.074108 958.97583 0 0 128
-21.967754 62.795109 958.7359 0 0 128
-21.964285 63.57074 958.40326 0 0 128
-21.982862 64.349686 958.47461 0 0 128
-21.970211 65.121803 958.46857 0 0 128
-21.985563 65.875633 958.44 0 0 128
-21.9772 66.622223 958.19824 0 0 128
-21.988535 67.337257 957.93646 0 0 128
-21.998322 68.023933 957.76398 0 0 128
-21.930313 68.711319 957.41144 0 0 128
-21.950363 69.436821 957.36224 0 0 128
-21.928169 70.182213 957.35187 0 0 128
-21.868595 70.876404 957.18854 0 0 128
-21.953089 71.630821 957.4928 0 0 128
-21.95327 72.446144 957.62128 0 0 128
-22.029724 73.220978 957.58295 0 0 128
-21.984396 73.905029 957.3869 0 0 128
-21.995291 74.647697 957.43323 0 0 128
-22.092949 75.311218 957.39899 0 0 128
-21.936394 76.037453 957.0849 0 0 128
-21.895531 76.728065 956.70483 0 0 128
-21.962887 77.384811 956.61633 0 0 128
-21.995663 78.103638 956.58636 0 0 128
-22.014381 78.837761 956.56812 0 0 128
-22.0222 79.606789 956.54926 0 0 128
-22.060499 80.318863 956.46191 0 0 128
-22.076899 81.031624 956.4057 0 0 128
-22.050764 81.766167 956.13916 0 0 128
-22.14357 82.492973 956.22235 0 0 128
-22.13961 83.182304 955.94055 0 0 128
-22.190884 83.855202 955.86945 0 0 128
-22.196354 84.578819 955.87927 0 0 128
-22.21673 85.402069 956.56915 0 0 128
-22.226904 86.137421 956.87061 0 0 128
-22.245275 87.002174 958.37079 0 0 128
-22.303331 87.910515 960.05762 0 0 128
-22.386675 88.945122 962.52771 0 0 128
-22.365826 89.969261 964.00769 0 0 132
-22.326971 90.789436 963.43402 0 0 132
-22.151644 90.803352 959.27753 0 0 128
-55.059444 223.05429 2380.9875 255 192 0
-60.975807 245.82259 2631.8623 255 68 0
-59.127392 238.96715 2547.6401 255 108 0
0 0 0 0 0 128
-22.011429 -88.859924 980.9353 0 0 128
-21.84647 -88.022079 981.00354 0 0 128
-21.768948 -87.228111 980.68365 0 0 128
-21.806847 -86.438065 980.61218 0 0 128
-21.804573 -85.674622 980.43292 0 0 128
-21.785563 -84.924324 980.25946 0 0 128
-21.852919 -84.181572 980.31311 0 0 128
-21.908951 -83.453995 980.41595 0 0 128
-21.93462 -82.716026 980.45325 0 0 128
-21.963221 -81.964043 980.44855 0 0 128
-21.965893 -81.196541 980.33148 0 0 128
-21.960817 -80.433594 980.2627 0 0 128
-21.959314 -79.677589 980.28076 0 0 128
-21.983976 -78.90786 980.2912 0 0 128
-21.981295 -78.1661 980.26471 0 0 128
-21.97953 -77.407501 980.18176 0 0 128
-22.001352 -76.66777 980.16101 0 0 128
-21.955336 -75.893349 979.84943 0 0 128
-21.970802 -75.127068 979.70117 0 0 128
-21.961214 -74.372124 979.64575 0 0 128
-21.952929 -73.617485 979.52429 0 0 128
-21.911665 -72.872818 979.29694 0 0 128
-21.921179 -72.111633 979.17853 0 0 128
-21.886618 -71.369965 979.0954 0 0 128
-21.871841 -70.589348 978.91101 0 0 128
-21.851921 -69.838226 978.82043 0 0 128
-21.880318 -69.120056 978.87354 0 0 128
-21.865469 -68.365173 978.63702 0 0 128
-21.864054 -67.568726 978.52679 0 0 128
-21.836721 -66.865845 978.27246 0 0 128
-21.85924 -66.076729 978.03119 0 0 128
-21.849573 -65.320068 977.7475 0 0 128
-21.856697 -64.603867 977.76215 0 0 128
-21.862291 -63.8214 977.7345 0 0 128
-21.85984 -63.094425 977.71698 0 0 128
-21.837141 -62.367302 977.84918 0 0 128
-21.85726 -61.683685 977.96356 0 0 128
-21.853458 -60.916393 977.90771 0 0 128
-21.876486 -60.185291 978.18103 0 0 128
-21.856607 -59.311539 977.89618 0 0 128
-21.874115 -58.557873 977.79962 0 0 128
-21.903488 -57.85815 977.86774 0 0 128
-21.876129 -57.09943 977.46088 0 0 128
-21.906614 -56.422657 977.44965 0 0 128
-21.916887 -55.714272 977.74323 0 0 128
-21.898844 -54.930595 977.59796 0 0 128
-21.9202 -54.146553 977.01367 0 0 128
-21.923147 -53.385616 976.77728 0 0 128
-21.889954 -52.617687 976.87555 0 0 128
-21.886364 -51.865219 977.03601 0 0 128
-21.886662 -51.082569 976.52734 0 0 128
-21.873022 -50.280781 975.85474 0 0 128
-21.861759 -49.519798 975.86151 0 0 128
-21.857224 -48.749313 975.72046 0 0 128
-21.860378 -47.985218 975.60596 0 0 128
-21.876022 -47.2197 975.62659 0 0 128
-21.883741 -46.465332 975.30933 0 0 128
-21.858135 -45.707226 975.13702 0 0 128
-21.855646 -44.966431 974.97784 0 0 128
-21.854446 -44.208122 974.97729 0 0 128
-21.824919 -43.471928 974.77588 0 0 128
-21.821682 -42.708176 974.69086 0 0 128
-21.825882 -41.958988 974.62274 0 0 128
-21.818216 -41.217522 974.52698 0 0 128
-21.798954 -40.450291 974.44482 0 0 128
-21.788534 -39.708012 974.3432 0 0 128
-21.810648 -38.968185 974.32587 0 0 128
-21.802938 -38.214554 974.27734 0 0 128
-21.800503 -37.479427 974.16595 0 0 128
-21.779152 -36.733307 973.9931 0 0 128
-21.768581 -35.982212 973.85193 0 0 128
-21.762737 -35.230011 973.71777 0 0 128
-21.774807 -34.491489 973.69818 0 0 128
-21.741322 -33.761337 973.56818 0 0 128
-21.708075 -33.024643 973.46832 0 0 128
-21.719505 -32.297798 973.31921 0 0 128
-21.698589 -31.561249 973.24536 0 0 128
-21.673944 -30.808603 973.03357 0 0 128
-21.703993 -30.085764 972.83246 0 0 128
-21.729982 -29.371244 973.15179 0 0 128
-119.9315 -536.93134 5390.6621 128 0 0
-42.008873 -127.67418 1880.135 58 255 198
-45.901714 -141.76244 2045.2471 142 255 114
-46.899021 -150.07796 2085.5422 162 255 94
-56.749168 -225.10272 2519.2903 255 132 0
-58.855865 -236.92715 2605.0342 255 92 0
-63.840176 -258.36865 2818.6191 240 0 0
-51.552765 -174.67871 2260.6084 246 255 10
-52.623764 -181.89571 2305.8169 255 240 0
-53.87244 -204.74156 2355.8716 255 212 0
-48.623867 -188.23717 2121.0261 182 255 74
-47.428764 -184.39745 2054.687 150 255 106
-46.687996 -186.76468 2011.4142 126 255 130
-46.226078 -187.86708 1977.7247 110 255 146
-45.885841 -190.69289 1950.2554 98 255 158
-64.965805 -341.4527 2789.5183 248 0 0
-61.712101 -342.8833 2632.3994 255 68 0
-59.49165 -347.017 2524.4636 255 116 0
-58.524418 -355.44958 2470.6484 255 144 0
-15.068846 -24.560434 531.45801 0 92 255
-14.985855 -20.951803 520.71204 0 96 255
-14.125522 -10.808298 478.59641 0 116 255
-10.903281 -5.0866771 328.49203 0 192 255
-8.4674444 -4.7379093 215.48592 0 248 255
-6.8714437 -11.3705 140.43236 30 255 226
-5.1901069 -11.936017 59.475685 70 255 186
-3.3681662 -9.8245125 -25.326544 110 255 146
-26.444979 -5.3881865 1003.0697 0 0 136
-26.553701 -4.6387253 1003.5699 0 0 136
-26.612852 -3.8503728 1003.6204 0 0 136
-26.693697 -3.0435894 1004.0383 0 0 136
-26.773228 -2.261796 1004.3098 0 0 136
-26.788458 -1.4771212 1004.3091 0 0 136
-26.766048 -0.75798595 1004.4679 0 0 136
-26.794319 -0.024317089 1004.6931 0 0 136
-26.793934 0.77251464 1004.7922 0 0 136
-26.794216 1.5760429 1005.1213 0 0 136
-26.851727 2.3169177 1005.4152 0 0 136
-26.866268 3.0705941 1005.4192 0 0 136
-26.849554 3.8408713 1005.3881 0 0 136
-26.839697 4.5750799 1004.9921 0 0 136
-26.814146 5.3266625 1004.7513 0 0 136
-26.791765 6.0623012 1004.8314 0 0 136
-26.795511 6.8106694 1004.8916 0 0 136
-26.750975 7.5220575 1004.3103 0 0 136
-26.735552 8.2240095 1003.925 0 0 136
-26.714752 8.9474401 1004.0538 0 0 136
-26.675369 9.7037697 1004.0068 0 0 136
-26.647713 10.42822 1003.6271 0 0 136
-26.524275 11.125086 1003.2841 0 0 136
-26.48395 11.803658 1002.502 0 0 136
-26.340843 12.467849 1001.6617 0 0 136
-26.242273 13.16498 1001.2299 0 0 136
-26.127172 13.821989 1000.6442 0 0 136
-26.029385 14.441469 1000.1346 0 0 136
-25.896929 15.103674 999.11945 0 0 136
-25.723839 15.7303 998.09497 0 0 136
-25.602188 16.298864 997.44214 0 0 136
-25.42065 16.883114 996.79761 0 0 136
-20.039066 19.020304 765.22137 0 0 232
-18.29203 19.179483 696.46466 0 8 255
-16.309391 23.690126 618.09497 0 44 255
-17.496702 25.740934 679.69659 0 16 255
-24.510889 18.520721 997.89648 0 0 136
-24.228354 19.958359 994.40656 0 0 136
-23.947248 20.545565 990.78931 0 0 136
-23.719475 21.028009 989.26215 0 0 132
-23.516569 21.493275 988.27338 0 0 132
-23.214476 22.126173 985.50848 0 0 132
-22.976725 22.751358 983.50775 0 0 132
-22.780451 23.40336 981.6676 0 0 128
-22.592213 24.077812 979.86249 0 0 128
-22.456247 24.658173 978.66711 0 0 128
-22.266212 25.555437 974.38898 0 0 128
-22.173592 26.409933 973.59326 0 0 128
-22.016127 26.73951 970.97906 0 0 128
-21.943836 27.334625 971.4021 0 0 128
-21.958771 28.346718 973.63995 0 0 128
-21.904926 29.332376 974.37347 0 0 128
-21.855795 29.79533 975.71167 0 0 128
-21.683821 30.369144 966.84357 0 0 128
-21.608868 31.443571 965.43518 0 0 128
-21.569233 32.278973 964.92828 0 0 128
-21.506954 32.737511 963.45398 0 0 128
-21.524469 33.520306 963.57812 0 0 128
-21.519138 34.165577 963.33893 0 0 128
-21.507387 34.922649 963.12012 0 0 128
-21.488342 35.70842 962.94116 0 0 128
-21.466915 36.421722 962.79102 0 0 128
-21.467724 37.178253 962.64453 0 0 128
-21.458138 37.936138 962.61414 0 0 128
-21.47131 38.687645 962.44135 0 0 128
-21.459175 39.411831 962.29779 0 0 128
-21.459927 40.135029 962.17084 0 0 128
-21.450397 40.860657 962.05389 0 0 128
-21.418123 41.587616 961.91089 0 0 128
-21.389704 42.341373 961.70752 0 0 128
-21.395367 43.083752 961.63568 0 0 128
-21.37471 43.826221 961.44525 0 0 128
-21.361294 44.566704 961.40143 0 0 128
-21.352163 45.298927 961.33795 0 0 128
-21.358397 46.020473 961.16321 0 0 128
-21.348801 46.710312 961.00323 0 0 128
-21.362299 47.425892 961.07373 0 0 128
-21.393085 48.183468 961.46411 0 0 128
-21.369276 48.928871 960.8139 0 0 128
-21.526249 49.865017 968.35382 0 0 132
-21.482986 50.670887 968.60406 0 0 132
-21.33712 50.511478 960.55621 0 0 128
0 0 0 0 0 128
0 0 0 0 0 128
-21.416307 54.391624 963.68536 0 0 128
-21.415743 54.581036 964.05878 0 0 128
-21.535934 56.201931 969.79456 0 0 132
0 0 0 0 0 128
-21.492039 57.551327 966.01215 0 0 132
-21.345476 55.751488 957.56091 0 0 128
-21.455561 57.018265 960.47693 0 0 128
-21.542683 57.622761 962.90448 0 0 128
-21.469336 59.326393 961.75336 0 0 128
-21.295971 59.073605 954.93365 0 0 128
-21.357473 60.628033 960.98633 0 0 128
-21.301193 61.346546 960.04504 0 0 128
-21.235067 62.057613 959.03796 0 0 128
-21.265146 62.817009 958.29449 0 0 128
-21.290043 63.556137 958.69983 0 0 128
-21.314154 64.331261 958.6604 0 0 128
-21.264908 65.07431 958.34991 0 0 128
-21.221235 65.863197 958.34644 0 0 128
-21.252602 66.600487 958.21802 0 0 128
-21.295437 67.375999 958.24158 0 0 128
-21.345694 68.044006 958.13647 0 0 128
-21.27384 68.718285 957.71368 0 0 128
-21.25507 69.424133 957.49298 0 0 128
-21.218771 70.132439 957.50116 0 0 128
-21.226742 70.816841 957.47443 0 0 128
-21.315262 71.563522 957.76288 0 0 128
-21.395327 72.41407 958.00476 0 0 128
-21.314842 73.208939 957.95197 0 0 128
-21.215649 73.974686 957.88861 0 0 128
-21.251778 74.693794 957.82556 0 0 128
-21.386387 75.354553 957.84119 0 0 128
-21.294403 76.05304 957.43097 0 0 128
-21.204441 76.730423 957.1579 0 0 128
-21.20475 77.436768 956.98035 0 0 128
-21.23587 78.094635 956.7757 0 0 128
-21.288357 78.836998 956.66418 0 0 128
-21.366249 79.597359 956.6994 0 0 128
-21.46011 80.318718 956.79614 0 0 128
-21.412785 81.046562 956.60199 0 0 128
-21.382133 81.762863 956.34747 0 0 128
-21.386892 82.470558 956.16357 0 0 128
-21.438442 83.171875 956.05798 0 0 128
-21.517113 83.859833 956.05774 0 0 128
-21.556751 84.555901 955.83112 0 0 128
-21.545799 85.380829 956.42108 0 0 128
-21.550198 86.115166 956.84888 0 0 128
-21.495443 86.955872 957.91791 0 0 128
-21.559423 87.839554 959.41345 0 0 128
-21.650122 88.843582 961.57666 0 0 128
-21.742506 90.072449 964.79071 0 0 132
-21.78512 91.065575 966.08868 0 0 132
-21.524324 90.894539 959.53693 0 0 128
-53.371235 224.3268 2382.3054 255 188 0
-59.001682 247.7178 2631.4475 255 68 0
0 0 0 0 0 128
0 0 0 0 0 128
-21.261904 -88.759186 980.77966 0 0 128
-21.069843 -87.959793 980.42969 0 0 128
-21.035675 -87.180969 980.35315 0 0 128
-21.044489 -86.405342 980.35858 0 0 128
-21.054832 -85.632767 980.2287 0 0 128
-21.085197 -84.889 980.24768 0 0 128
-21.12892 -84.173164 980.39673 0 0 128
-21.150068 -83.450714 980.5473 0 0 128
-21.185427 -82.723221 980.64886 0 0 128
-21.194866 -81.976936 980.53522 0 0 128
-21.228239 -81.239311 980.57373 0 0 128
-21.234058 -80.47522 980.52087 0 0 128
-21.231432 -79.704491 980.47443 0 0 128
-21.242945 -78.933792 980.4588 0 0 128
-21.228336 -78.187767 980.37457 0 0 128
-21.227158 -77.42617 980.31897 0 0 128
-21.245617 -76.680443 980.2052 0 0 128
-21.236515 -75.903107 980.06812 0 0 128
-21.213102 -75.143501 979.89722 0 0 128
-21.215872 -74.371185 979.8324 0 0 128
-21.178059 -73.627686 979.64105 0 0 128
-21.185293 -72.897255 979.50415 0 0 128
-21.163927 -72.134689 979.3775 0 0 128
-21.171736 -71.389641 979.29254 0 0 128
-21.137987 -70.61145 979.09705 0 0 128
-21.142466 -69.834221 978.88812 0 0 128
-21.12998 -69.106186 978.87872 0 0 128
-21.109573 -68.374229 978.74225 0 0 128
-21.112759 -67.633408 978.64752 0 0 128
-21.101801 -66.806007 978.23279 0 0 128
-21.117903 -66.011734 978.10846 0 0 128
-21.101326 -65.295609 977.87152 0 0 128
-21.086397 -64.536598 977.48114 0 0 128
-21.078426 -63.855789 977.38129 0 0 128
-21.109974 -63.140804 977.74286 0 0 128
-21.087786 -62.44495 977.60431 0 0 128
-21.095045 -61.710449 977.95984 0 0 128
-21.086433 -60.927376 977.59631 0 0 128
-21.096752 -60.22226 978.11157 0 0 128
-21.101053 -59.306133 977.93359 0 0 128
-21.130688 -58.618073 978.13013 0 0 128
-21.152885 -57.939285 978.02307 0 0 128
-21.147928 -57.158108 978.32861 0 0 128
-21.173212 -56.499283 978.16156 0 0 128
-21.168066 -55.66275 977.56042 0 0 128
-21.174509 -54.93552 977.87354 0 0 128
-21.205345 -54.222168 977.71472 0 0 128
-21.207645 -53.424755 977.43604 0 0 128
-21.200724 -52.71619 977.8623 0 0 128
-21.157589 -51.951054 977.57074 0 0 128
-21.152647 -51.096451 976.33093 0 0 128
-21.136353 -50.330975 975.74774 0 0 128
-21.137209 -49.531231 975.94427 0 0 128
-21.11631 -48.751999 975.88489 0 0 128
-21.139643 -47.950371 975.75092 0 0 128
-21.153727 -47.215908 975.52667 0 0 128
-21.140846 -46.477432 975.50409 0 0 128
-21.100702 -45.71162 975.08221 0 0 128
-21.09481 -44.962692 975.04364 0 0 128
-21.095436 -44.230183 975.06421 0 0 128
-21.105955 -43.478447 974.98981 0 0 128
-21.081253 -42.725193 974.83685 0 0 128
-21.077797 -41.976055 974.75787 0 0 128
-21.085123 -41.223228 974.73083 0 0 128
-21.050756 -40.466236 974.57489 0 0 128
-21.049009 -39.734947 974.4837 0 0 128
-21.017471 -38.983906 974.33337 0 0 128
-21.053883 -38.238419 974.32166 0 0 128
-21.042332 -37.504013 974.25342 0 0 128
-21.029987 -36.758659 974.09198 0 0 128
-20.998186 -35.999413 973.95068 0 0 128
-20.996954 -35.244846 973.80414 0 0 128
-20.999229 -34.511486 973.69763 0 0 128
-20.991983 -33.756176 973.62659 0 0 128
-20.97983 -33.01487 973.61652 0 0 128
-20.978849 -32.285816 973.57635 0 0 128
-20.95278 -31.575603 973.41595 0 0 128
-20.945793 -30.835756 973.3551 0 0 128
-21.000414 -30.139099 973.37732 0 0 128
-21.008242 -29.349363 972.87903 0 0 128
-39.904984 -121.76916 1852.1023 46 255 210
-42.420296 -131.19576 1960.1001 98 255 158
-45.548576 -150.03967 2096.1704 166 255 90
-48.087852 -165.9975 2208.5713 222 255 34
-54.896595 -214.91348 2515.7102 255 136 0
-56.969891 -222.44673 2604.9451 255 92 0
-60.950836 -248.02522 2781.0308 255 4 0
-51.650158 -180.88496 2345.366 255 220 0
-50.076614 -172.20488 2267.677 250 255 6
-52.116776 -197.89784 2358.332 255 212 0
-50.280224 -184.45311 2262.4414 250 255 6
-48.767025 -166.74205 2180.342 210 255 46
-44.155342 -170.3313 1953.8055 98 255 158
-44.123203 -180.49854 1938.7229 94 255 162
-44.102493 -183.27774 1925.4836 86 255 170
-62.286812 -340.93616 2751.229 255 8 0
-59.021584 -339.81961 2587.2075 255 88 0
-55.472038 -338.77777 2415.075 255 172 0
-14.810558 -24.82304 533.82074 0 88 255
-14.571177 -23.348354 516.02545 0 100 255
-13.80076 -15.710321 476.42123 0 116 255
-11.177824 -8.9037409 348.34662 0 180 255
-8.3723087 1.5561982 213.73685 0 248 255
-6.2575898 1.0094514 111.22347 42 255 214
-5.04847 -9.0484972 47.502235 74 255 182
-25.771719 -6.8899293 1003.6237 0 0 136
-25.78599 -6.1235213 1003.8065 0 0 136
-25.891216 -5.3694 1004.2582 0 0 136
-26.050333 -4.6388588 1004.78 0 0 136
-26.052374 -3.8471787 1004.8452 0 0 136
-26.110912 -3.0453749 1004.9548 0 0 136
-26.139856 -2.2584538 1005.2442 0 0 136
-26.113152 -1.5036527 1005.6059 0 0 136
-26.106655 -0.75524032 1005.6115 0 0 136
-26.622286 -8.5722275 1027.6781 0 0 144
-26.097715 0.79516006 1005.7391 0 0 136
-26.104412 1.6120919 1005.7725 0 0 136
-26.100756 2.3597686 1005.8386 0 0 136
-26.105822 3.1348302 1006.0933 0 0 136
-26.093546 3.90483 1006.2344 0 0 136
-26.096924 4.6365204 1005.8161 0 0 136
-26.112249 5.3933945 1005.6135 0 0 136
-26.111698 6.1727614 1005.3361 0 0 136
-26.085339 6.872457 1005.3844 0 0 136
-26.055197 7.5812178 1005.2675 0 0 136
-26.028597 8.2981968 1004.621 0 0 136
-26.025902 9.0517902 1004.4358 0 0 136
-26.002279 9.8284655 1004.7526 0 0 136
-25.966043 10.514153 1004.3578 0 0 136
-25.93438 11.20805 1004.0704 0 0 136
-25.897734 11.91867 1003.3806 0 0 136
-25.807369 12.581633 1002.5911 0 0 136
-25.702429 13.283477 1001.8787 0 0 136
-25.615629 13.937601 1001.7127 0 0 136
-25.443108 14.601371 1000.9197 0 0 136
-25.344509 15.239015 1000.3685 0 0 136
-25.188683 15.899823 999.70569 0 0 136
-25.062136 16.426752 998.88617 0 0 136
-24.913712 17.028858 998.17267 0 0 136
-24.710367 17.575758 996.95544 0 0 136
-18.412252 23.08573 716.10956 0 0 255
-15.599693 21.206131 594.97406 0 56 255
-15.579223 19.532787 603.18561 0 52 255
-15.534233 9.5464268 606.68585 0 52 255
-23.65274 20.034594 994.11798 0 0 136
-23.407866 20.592209 990.89551 0 0 136
-23.228849 21.207106 990.39709 0 0 136
-22.966337 21.595751 988.80988 0 0 132
-22.776022 22.260622 988.37518 0 0 132
-22.515566 22.866888 985.74432 0 0 132
-22.264818 23.510267 983.32397 0 0 132
-22.026461 24.127005 981.58838 0 0 128
-21.837143 24.70187 980.22217 0 0 128
-21.66993 25.386059 977.24908 0 0 128
-21.493307 26.275991 974.2724 0 0 128
-21.389935 27.075947 973.8446 0 0 128
-21.238066 27.420055 970.68018 0 0 128
-21.210461 28.473719 971.8421 0 0 128
-21.115421 29.033705 972.31458 0 0 128
-21.163134 29.87863 975.44843 0 0 128
-20.821146 30.650183 961.93958 0 0 128
-20.863344 31.069471 963.12994 0 0 128
-20.838388 31.956945 963.78088 0 0 128
-20.808794 32.681076 963.72321 0 0 128
-20.794498 33.525417 963.76764 0 0 128
-20.788179 34.226723 963.45953 0 0 128
-20.745062 34.926743 962.96661 0 0 128
-20.742611 35.688053 962.96942 0 0 128
-20.732794 36.435993 962.81415 0 0 128
-20.725983 37.146889 962.80078 0 0 128
-20.737843 37.899452 962.67883 0 0 128
-20.693182 38.657516 962.49127 0 0 128
-20.698301 39.410347 962.38867 0 0 128
-20.663647 40.126888 962.13812 0 0 128
-20.647989 40.854996 962.05731 0 0 128
-20.645662 41.579086 961.91888 0 0 128
-20.645439 42.339649 961.77679 0 0 128
-20.629572 43.093941 961.69672 0 0 128
-20.661589 43.837631 961.64709 0 0 128
-20.670204 44.567604 961.64331 0 0 128
-20.643127 45.294136 961.5528 0 0 128
-20.635654 46.016491 961.45575 0 0 128
-20.63389 46.718914 961.24109 0 0 128
-20.639521 47.399403 961.1178 0 0 128
-20.620819 48.134766 960.96991 0 0 128
-20.61985 48.909031 961.48529 0 0 128
-20.630213 49.563026 960.90399 0 0 128
-20.639326 50.334484 961.83319 0 0 128
-20.632858 50.792114 961.50037 0 0 128
-20.588451 51.23378 960.50177 0 0 128
-20.579372 52.054638 959.61029 0 0 128
-20.646254 53.115219 960.20581 0 0 128
-20.739491 54.331421 964.73059 0 0 128
0 0 0 0 0 128
-20.426846 50.545864 946.45386 0 0 132
-20.484562 50.57608 948.52771 0 0 132
-20.604364 53.558189 955.32904 0 0 128
-20.696709 52.076672 956.54456 0 0 128
-20.736069 56.764168 961.83038 0 0 128
-20.515406 57.519325 952.26855 0 0 128
-20.636925 59.678616 957.8493 0 0 128
-20.654152 60.624172 959.28333 0 0 128
-20.589558 61.337811 959.28864 0 0 128
-20.590504 62.024323 957.91821 0 0 128
-20.523485 62.813366 958.13025 0 0 128
-20.590975 63.573578 958.30835 0 0 128
-20.578239 64.322151 958.36987 0 0 128
-20.614851 65.070885 958.32959 0 0 128
-20.571815 65.896454 958.44366 0 0 128
-20.597992 66.58567 958.32593 0 0 128
-20.683451 67.344124 958.52032 0 0 128
-20.714497 68.070778 958.47791 0 0 128
-20.675615 68.736481 958.24487 0 0 128
-20.590174 69.410362 957.80206 0 0 128
-20.587061 70.113411 957.85907 0 0 128
-20.600538 70.791039 957.85162 0 0 128
-20.712055 71.523438 958.01971 0 0 128
-20.66012 72.351685 958.03107 0 0 128
-20.675461 73.201874 958.25488 0 0 128
-20.557375 73.940613 957.93884 0 0 128
-20.542744 74.654747 957.76581 0 0 128
-20.599199 75.393723 957.80774 0 0 128
-20.603752 76.037605 957.61151 0 0 128
-20.556763 76.76889 957.46436 0 0 128
-20.522617 77.433098 957.23151 0 0 128
-20.512629 78.10984 956.9718 0 0 128
-20.535715 78.818535 956.84363 0 0 128
-20.659069 79.575317 957.00555 0 0 128
-20.683319 80.294136 956.8667 0 0 128
-20.73521 80.997406 956.76019 0 0 128
-20.714836 81.754066 956.63538 0 0 128
-20.690063 82.462906 956.34161 0 0 128
-20.700468 83.189186 956.29303 0 0 128
-20.756523 83.879997 956.26276 0 0 128
-20.810146 84.573448 956.02496 0 0 128
-20.776953 85.394119 956.56372 0 0 128
-20.778393 86.107918 956.7627 0 0 128
-20.71611 86.823769 956.70099 0 0 128
-20.798119 87.771088 958.87817 0 0 128
-20.903603 88.770233 960.67773 0 0 128
-20.979639 90.014282 963.52356 0 0 132
-21.035604 91.171074 966.47961 0 0 132
-20.795547 90.992409 958.79187 0 0 128
-52.275166 232.4313 2418.6919 255 172 0
-57.939304 255.15584 2680.9939 255 44 0
-56.040333 249.37805 2589.4658 255 88 0
0 0 0 0 0 128
-20.543982 -88.607384 980.60065 0 0 128
-20.352621 -87.879898 980.31 0 0 128
-20.323393 -87.158493 980.50024 0 0 128
-20.312366 -86.394798 980.5116 0 0 128
-20.324835 -85.640884 980.43408 0 0 128
-20.317028 -84.894165 980.39655 0 0 128
-20.409681 -84.197784 980.68597 0 0 128
-20.407726 -83.447777 980.68164 0 0 128
-20.437077 -82.702858 980.68597 0 0 128
-20.445648 -81.96077 980.66968 0 0 128
-20.492393 -81.213699 980.75543 0 0 128
-20.48321 -80.474174 980.66907 0 0 128
-20.490881 -79.716888 980.6123 0 0 128
-20.443663 -78.961777 980.49011 0 0 128
-20.475964 -78.191025 980.5036 0 0 128
-20.45496 -77.428474 980.36682 0 0 128
-20.484133 -76.671364 980.28601 0 0 128
-20.483215 -75.899391 980.19806 0 0 128
-20.491915 -75.150215 980.16272 0 0 128
-20.470867 -74.392235 980.02917 0 0 128
-20.439198 -73.654411 979.83856 0 0 128
-20.418827 -72.905807 979.6358 0 0 128
-20.42594 -72.155838 979.54651 0 0 128
-20.422213 -71.434227 979.47217 0 0 128
-20.424992 -70.649857 979.35187 0 0 128
-20.398796 -69.860954 979.10376 0 0 128
-20.384499 -69.11219 978.94281 0 0 128
-20.375723 -68.39254 978.97797 0 0 128
-20.377003 -67.5849 978.88025 0 0 128
-20.397469 -66.78302 978.61743 0 0 128
-20.379656 -65.967941 978.35748 0 0 128
-20.343355 -65.174194 977.52924 0 0 128
-20.320314 -64.499916 977.64819 0 0 128
-20.365179 -63.835785 977.86469 0 0 128
-20.351185 -63.119484 978.12726 0 0 128
-20.331614 -62.400333 977.79852 0 0 128
-20.30987 -61.664005 977.95563 0 0 128
