ply
format ascii 1.0
comment PCL generated
element vertex 1244
property float x
property float y
property float z
property uchar red
property uchar green
property uchar blue
element face 0
element camera 0
property float view_px
property float view_py
property float view_pz
property float x_axisx
property float x_axisy
property float x_axisz
property float y_axisx
property float y_axisy
property float y_axisz
property float z_axisx
property float z_axisy
property float z_axisz
property float focal
property float scalex
property float scaley
property float centerx
property float centery
property int viewportx
property int viewporty
property float k1
property float k2
end_header
32.317043 90.68309 969.94818 0 0 128
33.844799 -79.332802 992.71295 0 0 128
33.842251 -78.551453 992.63116 0 0 128
33.835678 -77.774429 992.45941 0 0 128
33.83205 -76.999237 992.38055 0 0 128
33.827206 -76.228172 992.25275 0 0 128
33.819901 -75.455162 992.13147 0 0 128
33.818645 -74.690468 992.0321 0 0 128
33.812244 -73.92083 991.8869 0 0 128
33.80619 -73.140076 991.76837 0 0 128
33.803398 -72.370285 991.64453 0 0 128
33.798355 -71.595154 991.51154 0 0 128
33.796055 -70.828842 991.41522 0 0 128
33.798073 -70.066277 991.31525 0 0 128
33.791023 -69.29702 991.17267 0 0 128
33.785404 -68.540787 991.03223 0 0 128
33.782387 -67.765762 990.91034 0 0 128
33.77911 -67.011543 990.78448 0 0 128
33.775234 -66.251785 990.70111 0 0 128
33.766525 -65.481354 990.5708 0 0 128
33.761292 -64.719864 990.49567 0 0 128
33.754677 -63.953339 990.30493 0 0 128
33.75156 -63.182953 990.18781 0 0 128
33.744892 -62.404427 990.03601 0 0 128
33.740711 -61.620468 989.85114 0 0 128
33.737896 -60.844387 989.72998 0 0 128
33.73632 -60.080807 989.60114 0 0 128
33.735653 -59.316071 989.47931 0 0 128
33.733494 -58.552067 989.36328 0 0 128
33.72958 -57.785934 989.25378 0 0 128
33.724895 -57.024193 989.14117 0 0 128
33.720703 -56.261833 989.03967 0 0 128
33.715771 -55.508068 988.91656 0 0 128
33.71233 -54.742195 988.78491 0 0 128
33.708549 -53.981922 988.65057 0 0 128
33.702957 -53.212627 988.5307 0 0 128
33.699303 -52.446461 988.41455 0 0 128
33.692261 -51.690346 988.30402 0 0 128
33.687305 -50.934307 988.18048 0 0 128
33.684471 -50.17622 988.06982 0 0 128
33.682365 -49.416016 987.94934 0 0 128
33.678398 -48.657909 987.83246 0 0 128
33.674557 -47.903812 987.72711 0 0 128
33.66993 -47.150387 987.6134 0 0 128
33.666004 -46.396725 987.50269 0 0 128
33.657406 -45.634418 987.37244 0 0 128
33.652706 -44.874474 987.26678 0 0 128
33.647568 -44.118587 987.14594 0 0 128
33.641659 -43.353851 987.01636 0 0 128
33.636631 -42.593292 986.87689 0 0 128
33.633408 -41.833412 986.74847 0 0 128
33.62632 -41.068996 986.63239 0 0 128
33.623913 -40.30846 986.50446 0 0 128
33.617687 -39.550991 986.39032 0 0 128
33.614101 -38.793144 986.26385 0 0 128
33.611015 -38.032028 986.13727 0 0 128
33.607418 -37.273228 986.01819 0 0 128
33.603893 -36.511517 985.89795 0 0 128
33.600506 -35.751343 985.77789 0 0 128
33.595543 -34.998016 985.65497 0 0 128
33.589279 -34.238232 985.53021 0 0 128
33.584225 -33.484394 985.40985 0 0 128
33.581818 -32.727348 985.27698 0 0 128
33.578812 -31.971123 985.1424 0 0 128
33.574276 -31.212198 985.03198 0 0 128
33.568611 -30.455938 984.9024 0 0 128
33.563198 -29.701788 984.78033 0 0 128
33.559822 -28.948305 984.64801 0 0 128
33.554985 -28.19031 984.53699 0 0 128
33.551262 -27.436176 984.42725 0 0 128
33.54673 -26.680321 984.3114 0 0 128
33.542931 -25.924902 984.1897 0 0 128
33.539928 -25.170853 984.07397 0 0 128
33.536667 -24.413858 983.94885 0 0 128
33.532688 -23.657278 983.83344 0 0 128
33.529663 -22.904268 983.69611 0 0 128
33.525501 -22.151672 983.57623 0 0 128
33.520233 -21.397997 983.44812 0 0 128
33.516273 -20.643614 983.32111 0 0 128
33.512844 -19.890919 983.20306 0 0 128
33.508045 -19.138802 983.08282 0 0 128
33.503147 -18.38398 982.98322 0 0 128
33.499138 -17.632765 982.87024 0 0 128
33.496101 -16.880505 982.75116 0 0 128
33.493351 -16.128345 982.63898 0 0 128
33.490074 -15.377192 982.52893 0 0 128
33.485596 -14.626031 982.422 0 0 128
33.482235 -13.874151 982.30597 0 0 128
33.478153 -13.121147 982.18658 0 0 128
33.474506 -12.369328 982.07214 0 0 128
33.471031 -11.617419 981.97113 0 0 128
33.467739 -10.864842 981.86407 0 0 128
33.463005 -10.114511 981.75146 0 0 128
33.459606 -9.3637152 981.63611 0 0 128
33.455868 -8.6127872 981.52643 0 0 128
33.451904 -7.8594937 981.40082 0 0 128
33.447388 -7.1114745 981.26453 0 0 128
33.443817 -6.348309 981.14221 0 0 128
33.43795 -5.6040745 980.979 0 0 128
33.432484 -4.8578358 980.84296 0 0 128
33.427494 -4.0977063 980.70349 0 0 128
33.423344 -3.3370287 980.60132 0 0 128
33.418221 -2.5980592 980.49939 0 0 128
33.417793 -1.8649213 980.48553 0 0 128
33.414097 -1.1422863 980.4433 0 0 128
33.412674 -0.40541929 980.39069 0 0 128
33.410595 0.35648751 980.30267 0 0 128
33.410599 1.0988448 980.24609 0 0 128
33.408897 1.8611444 980.15399 0 0 128
33.407063 2.6180964 980.09833 0 0 128
33.406441 3.3923194 980.03973 0 0 128
33.403275 4.1444144 979.9115 0 0 128
33.401703 4.8762116 979.85406 0 0 128
33.398113 5.6068153 979.76929 0 0 128
33.39463 6.3454533 979.66913 0 0 128
33.390114 7.0795979 979.54993 0 0 128
33.387749 7.8404183 979.43988 0 0 128
33.384411 8.5727406 979.32977 0 0 128
33.377121 9.3564177 979.10779 0 0 128
33.37463 10.092693 978.97333 0 0 128
33.365391 10.84812 978.76825 0 0 128
33.360268 11.576777 978.63092 0 0 128
33.353031 12.344944 978.41919 0 0 128
33.34853 13.084837 978.28729 0 0 128
33.34528 13.83 978.19147 0 0 128
33.341545 14.577254 978.10699 0 0 128
33.3381 15.322091 977.99786 0 0 128
33.335541 16.068678 977.89069 0 0 128
33.330902 16.815012 977.76111 0 0 128
33.325745 17.563812 977.6424 0 0 128
33.320847 18.31093 977.52905 0 0 128
33.317554 19.056749 977.41528 0 0 128
33.313599 19.80242 977.29169 0 0 128
33.309845 20.547321 977.18073 0 0 128
33.30574 21.291496 977.0777 0 0 128
33.301643 22.036402 976.96606 0 0 128
33.298748 22.778187 976.85101 0 0 128
33.295109 23.521523 976.7348 0 0 128
33.29163 24.265715 976.62311 0 0 128
33.286671 25.009005 976.51257 0 0 128
33.282196 25.750875 976.40167 0 0 128
33.278271 26.491892 976.29352 0 0 128
33.273861 27.235323 976.18024 0 0 128
33.269737 27.977058 976.06494 0 0 128
33.266075 28.719635 975.95312 0 0 128
33.26244 29.461138 975.8349 0 0 128
33.258179 30.203922 975.72467 0 0 128
33.255032 30.945833 975.61377 0 0 128
33.251476 31.687559 975.5011 0 0 128
33.247826 32.429333 975.38843 0 0 128
33.244354 33.171101 975.27411 0 0 128
33.240978 33.913139 975.16638 0 0 128
33.236679 34.654808 975.05725 0 0 128
33.233833 35.395393 974.94458 0 0 128
33.230816 36.135891 974.83063 0 0 128
33.225777 36.876625 974.71832 0 0 128
33.221642 37.616928 974.60193 0 0 128
33.218689 38.357769 974.49054 0 0 128
33.215374 39.097401 974.37781 0 0 128
33.211269 39.837204 974.26447 0 0 128
33.207809 40.577091 974.15259 0 0 128
33.203621 41.316051 974.04053 0 0 128
33.201237 42.056019 973.92682 0 0 128
33.197437 42.794731 973.81964 0 0 128
33.194214 43.53257 973.71228 0 0 128
33.19125 44.271244 973.60162 0 0 128
33.187553 45.010399 973.49255 0 0 128
33.18372 45.748455 973.38324 0 0 128
33.178928 46.485397 973.26776 0 0 128
33.175121 47.223396 973.15741 0 0 128
33.171371 47.95866 973.04401 0 0 128
33.16835 48.69928 972.93616 0 0 128
33.16375 49.436489 972.82971 0 0 128
33.158981 50.173138 972.69934 0 0 128
33.15387 50.905998 972.56818 0 0 128
33.149223 51.637787 972.45209 0 0 128
33.145416 52.377094 972.33936 0 0 128
33.14143 53.11124 972.22382 0 0 128
33.137707 53.849148 972.11047 0 0 128
33.13382 54.589893 972.00549 0 0 128
33.129349 55.323956 971.88495 0 0 128
33.124794 56.05735 971.75891 0 0 128
33.121471 56.794991 971.63696 0 0 128
33.117184 57.530033 971.51428 0 0 128
33.112846 58.265747 971.38947 0 0 128
33.109043 58.996693 971.28027 0 0 128
33.105396 59.734478 971.17859 0 0 128
33.10088 60.468201 971.05975 0 0 128
33.097721 61.205601 970.94476 0 0 128
33.09407 61.942474 970.83069 0 0 128
33.089855 62.677441 970.7171 0 0 128
33.086311 63.411892 970.59735 0 0 128
33.082539 64.14991 970.48285 0 0 128
33.078575 64.884384 970.36194 0 0 128
33.074478 65.616051 970.23474 0 0 128
33.071053 66.34761 970.10767 0 0 128
33.067913 67.080536 969.99146 0 0 128
33.064056 67.813278 969.87067 0 0 128
33.059875 68.546509 969.75336 0 0 128
33.056095 69.279449 969.63898 0 0 128
33.051258 70.01413 969.52539 0 0 128
33.047234 70.747612 969.41022 0 0 128
33.043537 71.47924 969.2962 0 0 128
33.038677 72.211937 969.18561 0 0 128
33.034954 72.94455 969.06989 0 0 128
33.031906 73.674904 968.94934 0 0 128
33.02932 74.405472 968.82697 0 0 128
33.025757 75.136116 968.70612 0 0 128
33.021255 75.867661 968.59045 0 0 128
33.017509 76.598648 968.47589 0 0 128
33.01292 77.329529 968.36438 0 0 128
33.009533 78.060181 968.24957 0 0 128
33.005909 78.791985 968.13983 0 0 128
33.001892 79.523018 968.03119 0 0 128
32.997665 80.253044 967.92633 0 0 128
32.994415 80.982513 967.82373 0 0 128
32.990211 81.712128 967.71112 0 0 128
32.990368 82.442001 967.59528 0 0 128
32.985592 83.172691 967.50812 0 0 128
32.980362 83.903152 967.43408 0 0 128
32.973476 84.635849 967.35376 0 0 128
32.971748 85.367249 967.24121 0 0 128
32.968243 86.101578 967.24579 0 0 128
32.965466 86.833443 967.22729 0 0 128
32.962139 87.573311 967.33398 0 0 128
32.969482 88.30249 967.45032 0 0 128
32.989433 89.064392 968.03741 0 0 132
33.019032 89.862625 969.03937 0 0 128
34.601418 -76.266037 992.61768 0 0 128
34.59639 -75.498543 992.46222 0 0 128
34.592361 -74.737419 992.39569 0 0 128
34.583508 -73.953888 992.2384 0 0 128
34.574551 -73.170715 992.09235 0 0 128
34.569016 -72.393066 991.91522 0 0 128
34.566135 -71.617996 991.82037 0 0 128
34.564098 -70.855705 991.7616 0 0 128
34.562527 -70.094452 991.62378 0 0 128
34.559341 -69.326393 991.47003 0 0 128
34.552959 -68.570633 991.33264 0 0 128
34.549675 -67.790352 991.21271 0 0 128
34.547123 -67.0411 991.09778 0 0 128
34.541908 -66.288445 991.02704 0 0 128
34.531986 -65.520706 990.93585 0 0 128
34.527195 -64.760521 990.85638 0 0 128
34.518368 -63.992634 990.64172 0 0 128
34.513496 -63.218445 990.49548 0 0 128
34.504288 -62.423485 990.30707 0 0 128
34.500652 -61.621052 990.0694 0 0 128
34.495636 -60.849422 989.98676 0 0 128
34.498169 -60.094917 989.85675 0 0 128
34.499165 -59.33287 989.73383 0 0 128
34.4935 -58.56715 989.60284 0 0 128
34.490765 -57.797077 989.49249 0 0 128
34.487865 -57.033073 989.37146 0 0 128
34.482471 -56.279888 989.28851 0 0 128
34.481731 -55.524204 989.15759 0 0 128
34.475822 -54.752056 989.00708 0 0 128
34.47366 -53.994125 988.86066 0 0 128
34.465294 -53.22028 988.77173 0 0 128
34.461758 -52.464329 988.65656 0 0 128
34.45602 -51.70229 988.52673 0 0 128
34.45063 -50.945297 988.39246 0 0 128
34.44548 -50.184547 988.29791 0 0 128
34.441689 -49.424438 988.18652 0 0 128
34.436802 -48.66901 988.08069 0 0 128
34.437275 -47.920097 987.96667 0 0 128
34.432987 -47.168995 987.84784 0 0 128
34.426476 -46.414577 987.73254 0 0 128
34.418343 -45.651291 987.59045 0 0 128
34.412575 -44.891449 987.48755 0 0 128
34.407753 -44.131599 987.36926 0 0 128
34.403759 -43.367798 987.2309 0 0 128
34.399433 -42.607517 987.08661 0 0 128
34.393925 -41.848106 986.96906 0 0 128
34.388252 -41.082146 986.82892 0 0 128
34.382095 -40.323441 986.7193 0 0 128
34.376904 -39.562469 986.60718 0 0 128
34.372364 -38.804096 986.47821 0 0 128
34.368561 -38.040012 986.33533 0 0 128
34.36393 -37.280087 986.21759 0 0 128
34.363052 -36.51638 986.09723 0 0 128
34.358372 -35.7547 985.9743 0 0 128
34.354733 -35.001274 985.85669 0 0 128
34.349144 -34.243565 985.72906 0 0 128
34.344265 -33.491249 985.61584 0 0 128
34.340755 -32.733429 985.47906 0 0 128
34.337021 -31.978033 985.33624 0 0 128
34.331341 -31.2167 985.22272 0 0 128
34.325726 -30.462828 985.09308 0 0 128
34.319134 -29.70657 984.97113 0 0 128
34.315445 -28.953014 984.83203 0 0 128
34.311214 -28.196276 984.7229 0 0 128
34.306725 -27.44113 984.61914 0 0 128
34.301746 -26.684139 984.51685 0 0 128
34.298512 -25.926567 984.38739 0 0 128
34.296829 -25.170599 984.26697 0 0 128
34.294102 -24.416513 984.16614 0 0 128
34.290386 -23.660862 984.04517 0 0 128
34.286961 -22.903482 983.89636 0 0 128
34.28175 -22.150709 983.76312 0 0 128
34.277046 -21.396379 983.61646 0 0 128
34.272808 -20.644169 983.4845 0 0 128
34.269287 -19.890736 983.36597 0 0 128
34.264126 -19.1373 983.24762 0 0 128
34.259163 -18.383852 983.13757 0 0 128
34.254341 -17.633154 983.02167 0 0 128
34.251804 -16.88232 982.90118 0 0 128
34.248608 -16.128981 982.78632 0 0 128
34.244427 -15.377996 982.6731 0 0 128
34.239803 -14.626489 982.56573 0 0 128
34.236141 -13.874803 982.44391 0 0 128
34.232079 -13.121599 982.3244 0 0 128
34.228256 -12.370765 982.2099 0 0 128
34.224537 -11.618543 982.10321 0 0 128
34.220119 -10.868801 981.99109 0 0 128
34.215885 -10.118804 981.87549 0 0 128
34.211826 -9.3660603 981.76691 0 0 128
34.208115 -8.6139021 981.66284 0 0 128
34.20459 -7.8640237 981.55115 0 0 128
34.201786 -7.1119843 981.44409 0 0 128
34.19862 -6.3597965 981.33392 0 0 128
34.193432 -5.6098037 981.21454 0 0 128
34.189255 -4.8559313 981.08691 0 0 128
34.184261 -4.1098132 980.96057 0 0 128
34.17902 -3.3565898 980.83215 0 0 128
34.174324 -2.6037419 980.7085 0 0 128
34.169228 -1.851377 980.55859 0 0 128
34.164181 -1.1045272 980.4433 0 0 128
34.15786 -0.35577387 980.26465 0 0 128
34.15403 0.38648745 980.13635 0 0 128
34.151142 1.1217425 980.03625 0 0 128
34.148525 1.8949683 979.92883 0 0 128
34.146439 2.626456 979.88 0 0 128
34.143723 3.3773327 979.79858 0 0 128
34.141632 4.1350608 979.68695 0 0 128
34.136673 4.8767276 979.55322 0 0 128
34.135006 5.6128173 979.52795 0 0 128
34.130329 6.3398457 979.401 0 0 128
34.125668 7.0950685 979.2395 0 0 128
34.124557 7.8556781 979.12994 0 0 128
34.121376 8.591321 979.05548 0 0 128
34.119461 9.356555 978.99268 0 0 128
34.116795 10.107203 978.90479 0 0 128
34.11348 10.853 978.80029 0 0 128
34.110363 11.602362 978.70569 0 0 128
34.105183 12.349179 978.61218 0 0 128
34.102192 13.097045 978.51227 0 0 128
34.098007 13.839607 978.35791 0 0 128
34.092873 14.588523 978.25336 0 0 128
34.089397 15.334796 978.1499 0 0 128
34.084858 16.078159 978.02649 0 0 128
34.081013 16.824223 977.91046 0 0 128
34.076393 17.568987 977.797 0 0 128
34.071613 18.315611 977.68317 0 0 128
34.068062 19.061945 977.57019 0 0 128
34.064266 19.806738 977.45264 0 0 128
34.060196 20.549646 977.34436 0 0 128
34.056152 21.2936 977.23914 0 0 128
34.052273 22.038097 977.13428 0 0 128
34.049915 22.781948 977.02625 0 0 128
34.04599 23.524897 976.91193 0 0 128
34.041527 24.268656 976.79303 0 0 128
34.036877 25.0112 976.67548 0 0 128
34.032761 25.752893 976.56635 0 0 128
34.028679 26.494366 976.4613 0 0 128
34.023602 27.238745 976.34418 0 0 128
34.020348 27.97994 976.23853 0 0 128
34.015835 28.72176 976.12579 0 0 128
34.012329 29.464338 976.00134 0 0 128
34.008381 30.20632 975.89062 0 0 128
34.004707 30.949366 975.78033 0 0 128
34.00161 31.692982 975.67059 0 0 128
33.997768 32.434628 975.56036 0 0 128
33.994019 33.17617 975.44928 0 0 128
33.989895 33.918133 975.33826 0 0 128
33.986347 34.660454 975.22375 0 0 128
33.983292 35.400536 975.10931 0 0 128
33.979439 36.141483 974.99799 0 0 128
33.975105 36.881958 974.88525 0 0 128
33.971611 37.621609 974.77576 0 0 128
33.967899 38.363346 974.65961 0 0 128
33.964455 39.105049 974.54309 0 0 128
33.96003 39.843887 974.42981 0 0 128
33.956547 40.584328 974.31787 0 0 128
33.95261 41.323334 974.2077 0 0 128
33.949818 42.062817 974.09149 0 0 128
33.945957 42.802158 973.98108 0 0 128
33.942768 43.540493 973.87103 0 0 128
33.93948 44.2784 973.75763 0 0 128
33.93586 45.016632 973.64984 0 0 128
33.931515 45.753437 973.53992 0 0 128
33.9277 46.492802 973.43024 0 0 128
33.92355 47.231476 973.32092 0 0 128
33.919472 47.964569 973.20435 0 0 128
33.915939 48.704918 973.09857 0 0 128
33.91188 49.44363 972.98865 0 0 128
33.907803 50.179279 972.86957 0 0 128
33.902306 50.914265 972.73981 0 0 128
33.898491 51.650768 972.62634 0 0 128
33.892899 52.385017 972.51129 0 0 128
33.889427 53.122536 972.39417 0 0 128
33.885696 53.862461 972.289 0 0 128
33.881184 54.599453 972.16895 0 0 128
33.876904 55.33252 972.04071 0 0 128
33.872383 56.06776 971.92542 0 0 128
33.868111 56.806408 971.80774 0 0 128
33.864117 57.540733 971.68359 0 0 128
33.859497 58.277519 971.56415 0 0 128
33.855427 59.009766 971.45087 0 0 128
33.851738 59.748398 971.34137 0 0 128
33.847118 60.480545 971.22015 0 0 128
33.843197 61.217709 971.10785 0 0 128
33.839497 61.953117 970.98743 0 0 128
33.835987 62.688515 970.87048 0 0 128
33.831879 63.425186 970.75519 0 0 128
33.828457 64.16124 970.63892 0 0 128
33.823494 64.894157 970.51532 0 0 128
33.819798 65.625145 970.38666 0 0 128
33.816021 66.358452 970.26782 0 0 128
33.81266 67.091499 970.15192 0 0 128
33.808704 67.825172 970.03485 0 0 128
33.80479 68.558052 969.91705 0 0 128
33.800621 69.291534 969.80109 0 0 128
33.797112 70.025887 969.68469 0 0 128
33.792942 70.758842 969.56787 0 0 128
33.788197 71.491745 969.45355 0 0 128
33.78376 72.223312 969.34009 0 0 128
33.78093 72.955238 969.2251 0 0 128
33.777443 73.687256 969.10748 0 0 128
33.773617 74.41761 968.98767 0 0 128
33.769279 75.148056 968.86859 0 0 128
33.765518 75.87867 968.75067 0 0 128
33.761787 76.610374 968.63934 0 0 128
33.757946 77.342026 968.52228 0 0 128
33.754063 78.071815 968.40802 0 0 128
33.75095 78.80397 968.29663 0 0 128
33.746952 79.535484 968.18884 0 0 128
33.741871 80.265297 968.08331 0 0 128
33.738277 80.995667 967.97717 0 0 128
33.733997 81.725075 967.87793 0 0 128
33.730972 82.455894 967.78101 0 0 128
33.728497 83.185753 967.68079 0 0 128
33.724724 83.916138 967.59955 0 0 128
33.719746 84.647545 967.52716 0 0 128
33.715614 85.382782 967.41125 0 0 128
33.71117 86.113991 967.41443 0 0 128
33.707378 86.847321 967.43933 0 0 128
33.707943 87.587151 967.54193 0 0 128
33.709858 88.318481 967.6792 0 0 128
33.732456 89.064293 968.35455 0 0 128
33.761906 89.851486 969.08038 0 0 132
35.288868 -64.027763 991.12042 0 0 132
35.281849 -63.253563 990.88049 0 0 128
35.26878 -62.457241 990.60767 0 0 128
35.263985 -61.649895 990.36096 0 0 128
35.264637 -60.863705 990.22009 0 0 128
35.265766 -60.121277 990.1283 0 0 128
35.266804 -59.347008 990.00385 0 0 128
35.263859 -58.594673 989.93018 0 0 128
35.260479 -57.83493 989.83514 0 0 128
35.25486 -57.086903 989.72552 0 0 128
35.250576 -56.321377 989.64136 0 0 128
35.246799 -55.56538 989.48694 0 0 128
35.237869 -54.783009 989.27948 0 0 128
35.232117 -54.019882 989.1153 0 0 128
35.227367 -53.235882 989.00177 0 0 128
35.224056 -52.485836 988.92059 0 0 128
35.215355 -51.718361 988.77191 0 0 128
35.212868 -50.961819 988.64368 0 0 128
35.212685 -50.202381 988.52612 0 0 128
35.206783 -49.441139 988.39307 0 0 128
35.204723 -48.680069 988.30389 0 0 128
35.205284 -47.935364 988.20831 0 0 128
35.196217 -47.182362 988.0929 0 0 128
35.186455 -46.431374 988.0069 0 0 128
35.179485 -45.671173 987.85516 0 0 128
35.1745 -44.910561 987.72333 0 0 128
35.172916 -44.146774 987.62177 0 0 128
35.168114 -43.386604 987.49457 0 0 128
35.165573 -42.626644 987.33563 0 0 128
35.15691 -41.868671 987.20886 0 0 128
35.147514 -41.101192 987.05493 0 0 128
35.139893 -40.342411 986.95209 0 0 128
35.136276 -39.575989 986.82983 0 0 128
35.12994 -38.81937 986.69824 0 0 128
35.127087 -38.052101 986.54279 0 0 128
35.121155 -37.287327 986.42865 0 0 128
35.118256 -36.522625 986.3139 0 0 128
35.114868 -35.760502 986.16937 0 0 128
35.111404 -35.007042 986.05133 0 0 128
35.10577 -34.249329 985.93005 0 0 128
35.101612 -33.496967 985.81488 0 0 128
35.096516 -32.740376 985.6933 0 0 128
35.093872 -31.983374 985.56018 0 0 128
35.087841 -31.224421 985.42926 0 0 128
35.082802 -30.469667 985.30084 0 0 128
35.075859 -29.712524 985.1925 0 0 128
35.071205 -28.956718 985.03418 0 0 128
35.068142 -28.197784 984.93243 0 0 128
35.062202 -27.446199 984.83667 0 0 128
35.05838 -26.690969 984.73859 0 0 128
35.054474 -25.933434 984.60321 0 0 128
35.053345 -25.176125 984.49323 0 0 128
35.049576 -24.420433 984.38727 0 0 128
35.04631 -23.667328 984.27368 0 0 128
35.042755 -22.915634 984.15002 0 0 128
35.037121 -22.155193 983.9726 0 0 128
35.033428 -21.399109 983.80432 0 0 128
35.028774 -20.646982 983.67175 0 0 128
35.024021 -19.892105 983.53699 0 0 128
35.019703 -19.136675 983.4126 0 0 128
35.014973 -18.384972 983.29694 0 0 128
35.010685 -17.632324 983.17529 0 0 128
35.00745 -16.8818 983.0531 0 0 128
35.003998 -16.129915 982.93909 0 0 128
34.99939 -15.377892 982.8205 0 0 128
34.994713 -14.626265 982.71075 0 0 128
34.991085 -13.874117 982.58618 0 0 128
34.986217 -13.12256 982.46515 0 0 128
34.981934 -12.370181 982.34546 0 0 128
34.978146 -11.619208 982.23334 0 0 128
34.973106 -10.869344 982.11658 0 0 128
34.96925 -10.119103 981.99988 0 0 128
34.964531 -9.3668022 981.89264 0 0 128
34.961021 -8.6147547 981.78644 0 0 128
34.957684 -7.8634987 981.67218 0 0 128
34.953793 -7.1113744 981.5697 0 0 128
34.950474 -6.3610406 981.46143 0 0 128
34.945934 -5.6103616 981.35577 0 0 128
34.941719 -4.8601747 981.24811 0 0 128
34.937595 -4.1078372 981.13922 0 0 128
34.933136 -3.3599329 981.0235 0 0 128
34.929047 -2.6087086 980.90558 0 0 128
34.925323 -1.8615264 980.79791 0 0 128
34.920952 -1.112661 980.69574 0 0 128
34.917015 -0.36075464 980.58459 0 0 128
34.91283 0.38505358 980.46021 0 0 128
34.909592 1.1315955 980.34845 0 0 128
34.907093 1.8785626 980.25592 0 0 128
34.902744 2.6326876 980.1225 0 0 128
34.900169 3.3707683 980.03546 0 0 128
34.897469 4.1199021 979.92761 0 0 128
34.892628 4.8780112 979.81085 0 0 128
34.888916 5.6384869 979.69891 0 0 128
34.885662 6.3682766 979.62573 0 0 128
34.883076 7.1156464 979.5343 0 0 128
34.879879 7.8663125 979.40869 0 0 128
34.876801 8.6111174 979.32385 0 0 128
34.873127 9.3554869 979.19714 0 0 128
34.869144 10.103273 979.06799 0 0 128
34.866112 10.856746 978.98163 0 0 128
34.860989 11.606753 978.8537 0 0 128
34.856266 12.355758 978.73633 0 0 128
34.851913 13.10175 978.62292 0 0 128
34.848404 13.846199 978.50726 0 0 128
34.843983 14.59275 978.38916 0 0 128
34.839951 15.33851 978.28278 0 0 128
34.836281 16.084045 978.1637 0 0 128
34.831997 16.828766 978.05548 0 0 128
34.826912 17.57329 977.95148 0 0 128
34.82233 18.320162 977.83954 0 0 128
34.81905 19.065365 977.72943 0 0 128
34.815319 19.809679 977.61755 0 0 128
34.810829 20.551943 977.51227 0 0 128
34.806675 21.294878 977.41064 0 0 128
34.803833 22.040588 977.30688 0 0 128
34.801037 22.784786 977.20264 0 0 128
34.797318 23.528973 977.09088 0 0 128
34.791767 24.271231 976.96362 0 0 128
34.787369 25.014055 976.84454 0 0 128
34.782909 25.755144 976.74091 0 0 128
34.779091 26.497438 976.62384 0 0 128
34.774487 27.241096 976.52795 0 0 128
34.769909 27.983435 976.40717 0 0 128
34.766109 28.724989 976.29962 0 0 128
34.762207 29.467205 976.17511 0 0 128
34.757904 30.209599 976.06506 0 0 128
34.754589 30.952478 975.95386 0 0 128
34.750866 31.696722 975.84369 0 0 128
34.747791 32.439648 975.74097 0 0 128
34.74398 33.180271 975.63019 0 0 128
34.739346 33.922394 975.50946 0 0 128
34.735546 34.665676 975.39276 0 0 128
34.73246 35.406563 975.27832 0 0 128
34.728596 36.145485 975.16376 0 0 128
34.724545 36.887028 975.0564 0 0 128
34.720997 37.62653 974.94562 0 0 128
34.717373 38.367279 974.83521 0 0 128
34.713451 39.110008 974.71234 0 0 128
34.709373 39.850769 974.59747 0 0 128
34.705864 40.591396 974.48175 0 0 128
34.701591 41.33046 974.37329 0 0 128
34.698433 42.070568 974.25946 0 0 128
34.694683 42.809624 974.14545 0 0 128
34.691978 43.547626 974.0293 0 0 128
34.688107 44.284863 973.91125 0 0 128
34.684185 45.02417 973.80579 0 0 128
34.680229 45.76186 973.69702 0 0 128
34.676456 46.500423 973.58911 0 0 128
34.672382 47.239933 973.48346 0 0 128
34.667816 47.973434 973.36951 0 0 128
34.664013 48.712547 973.26239 0 0 128
34.660484 49.450451 973.15607 0 0 128
34.656456 50.187683 973.04028 0 0 128
34.651726 50.923962 972.92334 0 0 128
34.646893 51.661545 972.80383 0 0 128
34.642918 52.397121 972.69128 0 0 128
34.638145 53.134338 972.58374 0 0 128
34.633556 53.873138 972.45868 0 0 128
34.628708 54.607613 972.33472 0 0 128
34.625381 55.344761 972.21423 0 0 128
34.620007 56.080208 972.09583 0 0 128
34.615295 56.815159 971.97192 0 0 128
34.611126 57.550953 971.85706 0 0 128
34.606495 58.286961 971.73694 0 0 128
34.602699 59.024662 971.61896 0 0 128
34.598289 59.756603 971.49878 0 0 128
34.594177 60.492767 971.37952 0 0 128
34.589821 61.230133 971.26538 0 0 128
34.586269 61.964882 971.14612 0 0 128
34.582428 62.699631 971.02789 0 0 128
34.578327 63.436348 970.91138 0 0 128
34.574429 64.170128 970.79102 0 0 128
34.569839 64.902878 970.66394 0 0 128
34.566402 65.635109 970.54419 0 0 128
34.561485 66.369621 970.42773 0 0 128
34.558327 67.103386 970.30872 0 0 128
34.554386 67.836273 970.1933 0 0 128
34.550411 68.569748 970.07727 0 0 128
34.546421 69.302628 969.96155 0 0 128
34.54245 70.037041 969.84253 0 0 128
34.538429 70.769913 969.7251 0 0 128
34.533379 71.504036 969.61517 0 0 128
34.530006 72.235176 969.49969 0 0 128
34.526554 72.967506 969.38287 0 0 128
34.523487 73.698441 969.26263 0 0 128
34.519325 74.42852 969.14801 0 0 128
34.51593 75.159271 969.02362 0 0 128
34.511082 75.890228 968.91077 0 0 128
34.506821 76.621902 968.79706 0 0 128
34.503021 77.353951 968.68457 0 0 128
34.498878 78.085587 968.57062 0 0 128
34.495647 78.816742 968.45923 0 0 128
34.490799 79.548401 968.35181 0 0 128
34.486691 80.278297 968.2442 0 0 128
34.482998 81.008492 968.13818 0 0 128
34.478302 81.738373 968.0434 0 0 128
34.475498 82.467743 967.95129 0 0 128
34.471874 83.198662 967.87408 0 0 128
34.466763 83.931068 967.81586 0 0 128
34.459023 84.664124 967.72113 0 0 128
34.451107 85.398277 967.66315 0 0 128
34.45393 86.129669 967.56635 0 0 128
34.449509 86.858673 967.63269 0 0 128
34.45433 87.597984 967.78027 0 0 128
34.461731 88.32756 968.00403 0 0 128
34.46262 89.05806 968.31531 0 0 136
35.960934 -47.208549 988.40027 0 0 128
35.955582 -46.445362 988.28162 0 0 128
35.946865 -45.696175 988.16577 0 0 128
35.936192 -44.932144 988.03503 0 0 128
35.932426 -44.174946 987.88776 0 0 128
35.928436 -43.396027 987.74152 0 0 128
35.923504 -42.635937 987.59985 0 0 128
35.91407 -41.886406 987.4613 0 0 128
35.906147 -41.120773 987.27405 0 0 128
35.896698 -40.364716 987.21497 0 0 128
35.894501 -39.601078 987.07477 0 0 128
35.886581 -38.843472 986.90784 0 0 128
35.883163 -38.074638 986.79413 0 0 128
35.877735 -37.306923 986.664 0 0 128
35.87595 -36.541775 986.54877 0 0 128
35.871365 -35.779114 986.4209 0 0 128
35.871502 -35.015278 986.28571 0 0 128
35.865349 -34.257019 986.18768 0 0 128
35.861252 -33.497543 986.04602 0 0 128
35.856579 -32.743561 985.92676 0 0 128
35.850979 -31.98575 985.77533 0 0 128
35.846592 -31.227892 985.67841 0 0 128
35.840794 -30.473446 985.54797 0 0 128
35.834778 -29.716482 985.42194 0 0 128
35.829414 -28.96414 985.27148 0 0 128
35.827 -28.204773 985.15344 0 0 128
35.821079 -27.452946 985.07031 0 0 128
35.815552 -26.696352 984.98376 0 0 128
35.81139 -25.939978 984.82788 0 0 128
35.809196 -25.180511 984.72754 0 0 128
35.804771 -24.421848 984.62134 0 0 128
35.80246 -23.674688 984.51776 0 0 128
35.797825 -22.92275 984.37213 0 0 128
35.793362 -22.169043 984.25134 0 0 128
35.788021 -21.407381 984.07593 0 0 128
35.784351 -20.651901 983.87469 0 0 128
35.778564 -19.89295 983.73798 0 0 128
35.774727 -19.137878 983.59216 0 0 128
35.769341 -18.385159 983.4621 0 0 128
35.766384 -17.632696 983.32751 0 0 128
35.764511 -16.880926 983.21069 0 0 128
35.75922 -16.128883 983.09845 0 0 128
35.753578 -15.378704 982.9787 0 0 128
35.749603 -14.625724 982.85846 0 0 128
35.745129 -13.872994 982.72949 0 0 128
35.740444 -13.121079 982.60547 0 0 128
35.736347 -12.370155 982.48364 0 0 128
35.731682 -11.619966 982.36346 0 0 128
35.725925 -10.870086 982.24609 0 0 128
35.722172 -10.118918 982.12744 0 0 128
35.717869 -9.3660469 982.02264 0 0 128
35.714359 -8.6145849 981.91162 0 0 128
35.709808 -7.8649521 981.7962 0 0 128
35.706947 -7.1131749 981.69135 0 0 128
35.702225 -6.3623257 981.58508 0 0 128
35.698135 -5.6118979 981.48425 0 0 128
35.694496 -4.8598404 981.37683 0 0 128
35.69043 -4.1087637 981.2688 0 0 128
35.685936 -3.3609712 981.15906 0 0 128
35.68235 -2.6104403 981.04974 0 0 128
35.677956 -1.8609971 980.94513 0 0 128
35.673962 -1.1101996 980.84198 0 0 128
35.670769 -0.36141908 980.74585 0 0 128
35.667255 0.38426596 980.64545 0 0 128
35.664452 1.130715 980.5274 0 0 128
35.661278 1.8804617 980.42059 0 0 128
35.657276 2.6309018 980.30878 0 0 128
35.654648 3.3842061 980.19739 0 0 128
35.652061 4.131093 980.08936 0 0 128
35.647537 4.8778749 979.98566 0 0 128
35.642628 5.625978 979.87891 0 0 128
35.638142 6.3784633 979.76709 0 0 128
35.635395 7.1269732 979.65497 0 0 128
35.632805 7.8703823 979.55481 0 0 128
35.62851 8.6167402 979.44373 0 0 128
35.623531 9.3661337 979.3158 0 0 128
35.620731 10.113023 979.22296 0 0 128
35.616787 10.859259 979.11322 0 0 128
35.611851 11.607692 978.9931 0 0 128
35.606956 12.355728 978.87408 0 0 128
35.602737 13.102906 978.7522 0 0 128
35.599079 13.849844 978.64032 0 0 128
35.594593 14.596115 978.52478 0 0 128
35.591579 15.344568 978.42474 0 0 128
35.587246 16.089907 978.32446 0 0 128
35.583183 16.835766 978.21863 0 0 128
35.578274 17.579779 978.11456 0 0 128
35.573315 18.324177 978.00726 0 0 128
35.570755 19.068398 977.89868 0 0 128
35.566681 19.812189 977.78943 0 0 128
35.562309 20.55393 977.68115 0 0 128
35.557922 21.298645 977.58545 0 0 128
35.55423 22.044315 977.4895 0 0 128
35.552155 22.786388 977.38049 0 0 128
35.548256 23.530989 977.26593 0 0 128
35.542007 24.274603 977.14136 0 0 128
35.538235 25.015875 977.02039 0 0 128
35.534065 25.757326 976.91962 0 0 128
35.530209 26.499672 976.80292 0 0 128
35.525414 27.244741 976.7074 0 0 128
35.520653 27.986694 976.59167 0 0 128
35.516487 28.729385 976.47754 0 0 128
35.512154 29.469753 976.35425 0 0 128
35.507786 30.211931 976.24493 0 0 128
35.504673 30.955456 976.13397 0 0 128
35.501049 31.699207 976.02618 0 0 128
35.497303 32.442646 975.92767 0 0 128
35.493568 33.185921 975.81079 0 0 128
35.489059 33.926968 975.68842 0 0 128
35.485451 34.670227 975.56799 0 0 128
35.482464 35.411995 975.44897 0 0 128
35.478436 36.150326 975.33557 0 0 128
35.474258 36.892212 975.22754 0 0 128
35.470409 37.63129 975.12073 0 0 128
35.466953 38.371918 975.01239 0 0 128
35.462975 39.114796 974.88452 0 0 128
35.458408 39.855995 974.76898 0 0 128
35.455078 40.597321 974.65051 0 0 128
35.451176 41.335629 974.54291 0 0 128
35.447735 42.078129 974.42719 0 0 128
35.444191 42.817078 974.31348 0 0 128
35.440956 43.555588 974.19574 0 0 128
35.437614 44.292461 974.07098 0 0 128
35.432594 45.032017 973.95801 0 0 128
35.428608 45.769814 973.84686 0 0 128
35.424984 46.509174 973.7442 0 0 128
35.420582 47.246239 973.64563 0 0 128
35.416451 47.983143 973.53296 0 0 128
35.412525 48.718624 973.4306 0 0 128
35.408859 49.459858 973.32562 0 0 128
35.405163 50.19931 973.2113 0 0 128
35.400784 50.934532 973.09882 0 0 128
35.395592 51.672562 972.98187 0 0 128
35.391933 52.406906 972.87073 0 0 128
35.387157 53.147087 972.75269 0 0 128
35.382526 53.883247 972.63141 0 0 128
35.377819 54.62104 972.51257 0 0 128
35.374596 55.35973 972.39368 0 0 128
35.368542 56.09198 972.27069 0 0 128
35.363819 56.826973 972.14185 0 0 128
35.358231 57.562588 972.01898 0 0 128
35.353306 58.298618 971.89575 0 0 128
35.349697 59.03352 971.77869 0 0 128
35.345245 59.769176 971.6593 0 0 128
35.341545 60.505959 971.5401 0 0 128
35.337448 61.240005 971.41992 0 0 128
35.333359 61.975998 971.3017 0 0 128
35.329384 62.7113 971.18164 0 0 128
35.325085 63.446159 971.05963 0 0 128
35.320442 64.178757 970.93542 0 0 128
35.316612 64.912888 970.81909 0 0 128
35.312805 65.64621 970.70068 0 0 128
35.308212 66.381638 970.58716 0 0 128
35.304127 67.114532 970.46649 0 0 128
35.301418 67.848114 970.35046 0 0 128
35.296875 68.581825 970.23474 0 0 128
35.292538 69.315025 970.11938 0 0 128
35.288483 70.048386 970.00055 0 0 128
35.283321 70.782173 969.88757 0 0 128
35.27895 71.51548 969.77332 0 0 128
35.274734 72.247147 969.65924 0 0 128
35.272007 72.979828 969.54248 0 0 128
35.268841 73.710159 969.42328 0 0 128
35.265175 74.440857 969.30627 0 0 128
35.260902 75.171478 969.18427 0 0 128
35.257011 75.902565 969.07367 0 0 128
35.253361 76.634132 968.95831 0 0 128
35.249359 77.366356 968.84467 0 0 128
35.244987 78.098534 968.72949 0 0 128
35.241741 78.828949 968.62073 0 0 128
35.23645 79.561111 968.51111 0 0 128
35.231747 80.291847 968.40503 0 0 128
35.227505 81.021889 968.30157 0 0 128
35.22316 81.751221 968.20209 0 0 128
35.219425 82.48085 968.12421 0 0 128
35.215782 83.211609 968.04944 0 0 128
35.210201 83.945984 967.98181 0 0 128
35.203575 84.679756 967.9281 0 0 128
35.200096 85.412018 967.96124 0 0 128
35.187828 86.143761 967.87988 0 0 128
35.192253 86.879967 967.73376 0 0 128
35.199314 87.606743 967.82794 0 0 128
35.215824 88.33255 968.49915 0 0 128
35.197041 89.039642 968.51819 0 0 140
36.591148 -29.715649 985.68213 0 0 128
36.588627 -28.961529 985.58899 0 0 128
36.582958 -28.210579 985.43347 0 0 128
36.578732 -27.452879 985.33435 0 0 128
36.574429 -26.694878 985.24359 0 0 128
36.571877 -25.939962 985.0929 0 0 128
36.569653 -25.183924 985.00073 0 0 128
36.568531 -24.426094 984.89801 0 0 128
36.565323 -23.674976 984.78381 0 0 128
36.555698 -22.926966 984.62024 0 0 128
36.551395 -22.17181 984.47565 0 0 128
36.549992 -21.412367 984.33215 0 0 128
36.546135 -20.663176 984.21912 0 0 128
36.533726 -19.899725 983.98969 0 0 128
36.529564 -19.134987 983.8269 0 0 128
36.524956 -18.383326 983.66211 0 0 128
36.522587 -17.628981 983.51147 0 0 128
36.519936 -16.880079 983.37555 0 0 128
36.515038 -16.126894 983.25073 0 0 128
36.509235 -15.375848 983.13055 0 0 128
36.504974 -14.624675 983.00336 0 0 128
36.499531 -13.871195 982.8717 0 0 128
36.494148 -13.120243 982.74689 0 0 128
36.489891 -12.369287 982.6192 0 0 128
36.485546 -11.619389 982.49011 0 0 128
36.479397 -10.870163 982.37488 0 0 128
36.474926 -10.119176 982.263 0 0 128
36.471397 -9.367341 982.15112 0 0 128
36.467793 -8.6146736 982.03778 0 0 128
36.4631 -7.8651447 981.91986 0 0 128
36.459496 -7.1147103 981.81769 0 0 128
36.455002 -6.3634925 981.71429 0 0 128
36.451096 -5.6130457 981.61536 0 0 128
36.447281 -4.8613906 981.50397 0 0 128
36.44278 -4.1100349 981.39337 0 0 128
36.438679 -3.3595595 981.28693 0 0 128
36.434914 -2.6100991 981.17688 0 0 128
36.43042 -1.8610379 981.07373 0 0 128
36.427227 -1.110526 980.96899 0 0 128
36.423027 -0.36197969 980.86841 0 0 128
36.419914 0.38596192 980.76312 0 0 128
36.416721 1.1333387 980.65265 0 0 128
36.413357 1.8819746 980.54156 0 0 128
36.409538 2.6338179 980.42834 0 0 128
36.407009 3.3845363 980.32318 0 0 128
36.404312 4.1326871 980.20923 0 0 128
36.399776 4.880878 980.1048 0 0 128
36.395123 5.627387 980.00348 0 0 128
36.391331 6.3787637 979.89874 0 0 128
36.387623 7.127686 979.78485 0 0 128
36.384212 7.874742 979.66754 0 0 128
36.380177 8.622261 979.5556 0 0 128
36.375984 9.3705177 979.44775 0 0 128
36.372601 10.115938 979.34015 0 0 128
36.367996 10.864139 979.23065 0 0 128
36.3638 11.611577 979.117 0 0 128
36.358028 12.359575 979.01105 0 0 128
36.354824 13.108724 978.90112 0 0 128
36.350872 13.855683 978.78784 0 0 128
36.347046 14.602366 978.68011 0 0 128
36.343719 15.350751 978.58771 0 0 128
36.339451 16.095888 978.48975 0 0 128
36.33461 16.841146 978.38751 0 0 128
36.330811 17.585451 978.28003 0 0 128
36.325321 18.328987 978.18188 0 0 128
36.322578 19.073864 978.07556 0 0 128
36.318993 19.813629 977.96454 0 0 128
36.314125 20.55814 977.8551 0 0 128
36.309788 21.302778 977.76483 0 0 128
36.305794 22.047642 977.67291 0 0 128
36.303097 22.7887 977.56464 0 0 128
36.29929 23.53521 977.45782 0 0 128
36.294056 24.282326 977.3219 0 0 128
36.289757 25.021345 977.21143 0 0 128
36.285271 25.76339 977.10059 0 0 128
36.282036 26.50292 976.99988 0 0 128
36.277225 27.248487 976.89154 0 0 128
36.272278 27.989761 976.78693 0 0 128
36.267689 28.731136 976.66022 0 0 128
36.263214 29.470812 976.54248 0 0 128
36.258389 30.213652 976.42987 0 0 128
36.255848 30.957857 976.32544 0 0 128
36.252113 31.701815 976.22333 0 0 128
36.248253 32.445023 976.11572 0 0 128
36.244549 33.1898 975.99481 0 0 128
36.24015 33.931961 975.87781 0 0 128
36.236279 34.675323 975.75684 0 0 128
36.232655 35.417553 975.63147 0 0 128
36.228672 36.155422 975.51935 0 0 128
36.224251 36.898415 975.40955 0 0 128
36.220547 37.637234 975.30548 0 0 128
36.217892 38.378796 975.19226 0 0 128
36.213654 39.120003 975.06982 0 0 128
36.209339 39.862869 974.94965 0 0 128
36.205757 40.603378 974.82996 0 0 128
36.201572 41.34164 974.71637 0 0 128
36.197243 42.084663 974.60114 0 0 128
36.19347 42.826183 974.48236 0 0 128
36.190258 43.563255 974.36957 0 0 128
36.186939 44.300526 974.23572 0 0 128
36.182213 45.039707 974.11731 0 0 128
36.178516 45.777534 974.00348 0 0 128
36.173004 46.517342 973.88733 0 0 128
36.168301 47.253536 973.77667 0 0 128
36.165062 47.990379 973.67798 0 0 128
36.160713 48.727184 973.58075 0 0 128
36.156933 49.468609 973.47601 0 0 128
36.153439 50.207916 973.36707 0 0 128
36.148979 50.942757 973.26471 0 0 128
36.14455 51.684299 973.15741 0 0 128
36.141006 52.422379 973.04279 0 0 128
36.13678 53.160183 972.93127 0 0 128
36.131664 53.896374 972.81085 0 0 128
36.127407 54.636444 972.69659 0 0 128
36.123592 55.3727 972.56744 0 0 128
36.116955 56.104618 972.43854 0 0 128
36.112335 56.840179 972.31207 0 0 128
36.1064 57.574978 972.18408 0 0 128
36.10157 58.310513 972.0578 0 0 128
36.097507 59.044376 971.93933 0 0 128
36.093246 59.781429 971.82086 0 0 128
36.088795 60.517948 971.69598 0 0 128
36.084717 61.250591 971.57489 0 0 128
36.080734 61.987045 971.45758 0 0 128
36.076149 62.721722 971.33264 0 0 128
36.0714 63.455338 971.20728 0 0 128
36.066849 64.189507 971.09113 0 0 128
36.063313 64.924263 970.97595 0 0 128
36.059082 65.658058 970.85992 0 0 128
36.054447 66.393227 970.74597 0 0 128
36.050701 67.126472 970.62646 0 0 128
36.047424 67.860603 970.50989 0 0 128
36.043152 68.593788 970.39398 0 0 128
36.038651 69.32663 970.27802 0 0 128
36.034286 70.059959 970.16199 0 0 128
36.029999 70.79348 970.04688 0 0 128
36.02507 71.526932 969.93457 0 0 128
36.020908 72.259338 969.81738 0 0 128
36.017464 72.991539 969.69916 0 0 128
36.014553 73.722244 969.57874 0 0 128
36.010647 74.452484 969.46521 0 0 128
36.006512 75.184441 969.34882 0 0 128
36.003239 75.915451 969.23334 0 0 128
35.999027 76.646263 969.11945 0 0 128
35.994957 77.379219 969.00562 0 0 128
35.990665 78.111511 968.89148 0 0 128
35.986816 78.843025 968.78137 0 0 128
35.982853 79.573517 968.67267 0 0 128
35.977402 80.304192 968.56879 0 0 128
35.972988 81.034523 968.46832 0 0 128
35.969204 81.763977 968.36981 0 0 128
35.963009 82.495674 968.2865 0 0 128
35.958004 83.227951 968.21979 0 0 128
35.951923 83.960854 968.16852 0 0 128
35.946098 84.694244 968.15491 0 0 128
35.941109 85.423683 968.11121 0 0 128
35.934647 86.156639 968.14532 0 0 128
35.929821 86.893211 968.12134 0 0 128
35.945347 87.620216 967.99908 0 0 128
35.936806 88.346909 968.03387 0 0 128
37.228065 -10.117595 982.39685 0 0 128
37.224392 -9.3661938 982.28235 0 0 128
37.220848 -8.6147585 982.16217 0 0 128
37.216797 -7.8635774 982.05542 0 0 128
37.21254 -7.1149988 981.94733 0 0 128
37.208054 -6.3636622 981.84473 0 0 128
37.204384 -5.6138535 981.74243 0 0 128
37.200378 -4.8629975 981.63269 0 0 128
37.195923 -4.1121502 981.52386 0 0 128
37.191761 -3.361372 981.41699 0 0 128
37.188152 -2.611398 981.30621 0 0 128
37.183659 -1.8608327 981.20203 0 0 128
37.181122 -1.1110609 981.09778 0 0 128
37.176701 -0.36177632 980.99756 0 0 128
37.1731 0.38642302 980.89417 0 0 128
37.169456 1.1348226 980.78046 0 0 128
37.166794 1.8837157 980.66986 0 0 128
37.162941 2.6346915 980.56689 0 0 128
37.160519 3.3847556 980.45856 0 0 128
37.157646 4.1330223 980.34174 0 0 128
37.15329 4.8812766 980.23511 0 0 128
37.148117 5.6299815 980.13354 0 0 128
37.145073 6.3796415 980.03131 0 0 128
37.141373 7.1301432 979.91589 0 0 128
37.137951 7.8789701 979.79968 0 0 128
37.133011 8.6251812 979.68732 0 0 128
37.128891 9.3751688 979.57855 0 0 128
37.12558 10.119734 979.47443 0 0 128
37.120842 10.868781 979.36682 0 0 128
37.116276 11.617253 979.26062 0 0 128
37.11113 12.366189 979.15778 0 0 128
37.107056 13.112958 979.04822 0 0 128
37.103092 13.860928 978.93005 0 0 128
37.099602 14.609379 978.83405 0 0 128
37.096504 15.357016 978.74884 0 0 128
37.091949 16.10096 978.66235 0 0 128
37.087303 16.845366 978.56567 0 0 128
37.082577 17.590361 978.45544 0 0 128
37.07785 18.331379 978.36407 0 0 128
37.075195 19.078348 978.2608 0 0 128
37.07188 19.815384 978.15375 0 0 128
37.067215 20.562519 978.04822 0 0 128
37.063469 21.306311 977.96631 0 0 128
37.059597 22.050817 977.88055 0 0 128
37.056164 22.793938 977.76294 0 0 128
37.052437 23.539999 977.66327 0 0 128
37.04752 24.289658 977.52155 0 0 128
37.042973 25.02734 977.43268 0 0 128
37.039288 25.763529 977.31494 0 0 128
37.035671 26.501873 977.20874 0 0 128
37.03093 27.247688 977.09283 0 0 128
37.025532 27.992052 976.98346 0 0 128
37.021046 28.731285 976.85895 0 0 128
37.014965 29.472683 976.74261 0 0 128
37.010029 30.214233 976.62207 0 0 128
37.00806 30.959724 976.52734 0 0 128
37.003746 31.701988 976.43036 0 0 128
37.000542 32.446598 976.31726 0 0 128
36.99725 33.192398 976.19141 0 0 128
36.992664 33.937618 976.08539 0 0 128
36.988449 34.680927 975.95825 0 0 128
36.983631 35.421612 975.81616 0 0 128
36.978962 36.159779 975.7041 0 0 128
36.974762 36.901489 975.60004 0 0 128
36.971783 37.640961 975.49683 0 0 128
36.968189 38.384865 975.38446 0 0 128
36.965271 39.123615 975.26648 0 0 128
36.960556 39.86874 975.13983 0 0 128
36.957287 40.608601 975.02002 0 0 128
36.952751 41.345581 974.90466 0 0 128
36.948765 42.089394 974.79486 0 0 128
36.944256 42.830776 974.66852 0 0 128
36.940502 43.570282 974.53766 0 0 128
36.937775 44.307552 974.39795 0 0 128
36.931961 45.04797 974.27637 0 0 128
36.92794 45.786686 974.15314 0 0 128
36.92292 46.525135 974.05029 0 0 128
36.917549 47.263157 973.9411 0 0 128
36.914173 48.001144 973.83197 0 0 128
36.909855 48.739346 973.73456 0 0 128
36.905457 49.478748 973.62909 0 0 128
36.902412 50.221451 973.51086 0 0 128
36.898361 50.956074 973.41229 0 0 128
36.894165 51.700073 973.32953 0 0 128
36.890465 52.43737 973.22205 0 0 128
36.886154 53.171516 973.09723 0 0 128
36.881229 53.907303 972.97229 0 0 128
36.877033 54.649117 972.86023 0 0 128
36.873238 55.391403 972.75647 0 0 128
36.866745 56.119083 972.60675 0 0 128
36.861252 56.852642 972.47754 0 0 128
36.855465 57.589172 972.35382 0 0 128
36.850136 58.32333 972.21912 0 0 128
36.846165 59.057007 972.09686 0 0 128
36.841248 59.793289 971.97925 0 0 128
36.836704 60.529408 971.85223 0 0 128
36.832714 61.261528 971.72626 0 0 128
36.82785 61.997692 971.60773 0 0 128
36.823608 62.733082 971.48438 0 0 128
36.818592 63.466297 971.3631 0 0 128
36.813931 64.200676 971.25055 0 0 128
36.810379 64.93602 971.13635 0 0 128
36.806393 65.669785 971.01947 0 0 128
36.801521 66.404495 970.90515 0 0 128
36.797684 67.137703 970.78754 0 0 128
36.794266 67.871727 970.6698 0 0 128
36.790024 68.605545 970.55426 0 0 128
36.785439 69.338615 970.43555 0 0 128
36.781059 70.072159 970.3205 0 0 128
36.776123 70.806068 970.20776 0 0 128
36.771984 71.538925 970.09357 0 0 128
36.768127 72.271362 969.97815 0 0 128
36.763851 73.003334 969.85907 0 0 128
36.760834 73.734535 969.73822 0 0 128
36.756874 74.465332 969.62622 0 0 128
36.752289 75.198029 969.51239 0 0 128
36.749111 75.928909 969.39856 0 0 128
36.744694 76.658943 969.28149 0 0 128
36.740219 77.392456 969.17017 0 0 128
36.735935 78.124863 969.05621 0 0 128
36.731518 78.856422 968.94733 0 0 128
36.728016 79.587257 968.83838 0 0 128
36.723473 80.3172 968.73517 0 0 128
36.717625 81.048653 968.63696 0 0 128
36.713417 81.778816 968.53748 0 0 128
36.706882 82.511078 968.45782 0 0 128
36.700378 83.24395 968.39777 0 0 128
36.694218 83.974495 968.3689 0 0 128
36.686069 84.708313 968.36078 0 0 128
36.678196 85.441063 968.36145 0 0 128
36.678471 86.170593 968.39343 0 0 128
36.688301 86.900536 968.38495 0 0 128
36.677109 87.628838 968.31177 0 0 128
36.675259 88.355736 968.80847 0 0 128
37.965626 -7.1149449 982.07678 0 0 128
37.960918 -6.3643527 981.98254 0 0 128
37.959339 -5.6112189 981.87555 0 0 128
37.953976 -4.8629565 981.76239 0 0 128
37.949875 -4.1120872 981.65509 0 0 128
37.945297 -3.3630311 981.54779 0 0 128
37.94146 -2.6139381 981.43707 0 0 128
37.937729 -1.8620458 981.33344 0 0 128
37.93483 -1.11227 981.23004 0 0 128
37.930935 -0.36240891 981.12872 0 0 128
37.927353 0.38651934 981.02411 0 0 128
37.923481 1.1350733 980.91229 0 0 128
37.920452 1.8839749 980.80304 0 0 128
37.917267 2.634903 980.70068 0 0 128
37.914494 3.3848855 980.59186 0 0 128
37.911495 4.1329727 980.47479 0 0 128
37.906601 4.8821664 980.36713 0 0 128
37.901897 5.6325502 980.26782 0 0 128
37.899094 6.3811359 980.16742 0 0 128
37.895306 7.1309695 980.05481 0 0 128
37.891781 7.8821726 979.93842 0 0 128
37.886513 8.6291199 979.8244 0 0 128
37.882076 9.3783121 979.71155 0 0 128
37.878971 10.124093 979.6087 0 0 128
37.87394 10.872746 979.50183 0 0 128
37.868828 11.620532 979.40253 0 0 128
37.864105 12.370578 979.30701 0 0 128
37.859325 13.118116 979.20453 0 0 128
37.856277 13.864647 979.08911 0 0 128
37.852234 14.613152 979.00446 0 0 128
37.849838 15.360624 978.92163 0 0 128
37.844429 16.107088 978.84271 0 0 128
37.839874 16.848837 978.73889 0 0 128
37.834812 17.593666 978.63892 0 0 128
37.829773 18.334732 978.54938 0 0 128
37.827221 19.07682 978.44714 0 0 128
37.825634 19.819115 978.35016 0 0 128
37.821659 20.566988 978.24438 0 0 128
37.817665 21.310335 978.18146 0 0 128
37.813969 22.054527 978.1145 0 0 128
37.81073 22.799809 978.01178 0 0 128
37.808743 23.544512 977.92377 0 0 128
37.803276 24.29328 977.79431 0 0 128
37.796864 25.031967 977.66705 0 0 128
37.792152 25.765196 977.54382 0 0 128
37.788933 26.500292 977.44598 0 0 128
37.784145 27.25116 977.30768 0 0 128
37.778229 27.992632 977.20123 0 0 128
37.773766 28.732229 977.07526 0 0 128
37.766895 29.471769 976.94958 0 0 128
37.762875 30.211411 976.83929 0 0 128
37.760921 30.960669 976.75305 0 0 128
37.757034 31.704393 976.66205 0 0 128
37.752941 32.448772 976.54468 0 0 128
37.748158 33.192795 976.41351 0 0 128
37.744026 33.9389 976.30231 0 0 128
37.740856 34.683266 976.18549 0 0 128
37.733711 35.425369 976.02161 0 0 128
37.729462 36.163395 975.89484 0 0 128
37.726955 36.90514 975.80731 0 0 128
37.723488 37.646461 975.70953 0 0 128
37.720238 38.389549 975.58875 0 0 128
37.718021 39.127232 975.46643 0 0 128
37.712769 39.876118 975.33209 0 0 128
37.7094 40.617153 975.21924 0 0 128
37.704853 41.353897 975.09161 0 0 128
37.701591 42.097321 974.99286 0 0 128
37.696926 42.837631 974.86853 0 0 128
37.692955 43.577286 974.74609 0 0 128
37.68782 44.319077 974.57135 0 0 128
37.680977 45.058098 974.43256 0 0 128
37.678009 45.797081 974.30835 0 0 128
37.671425 46.533928 974.18829 0 0 128
37.665565 47.272125 974.08038 0 0 128
37.662952 48.011185 973.98358 0 0 128
37.658993 48.750496 973.88275 0 0 128
37.655079 49.486588 973.77637 0 0 128
37.65168 50.226204 973.66754 0 0 128
37.647686 50.963051 973.5434 0 0 128
37.644016 51.708008 973.44592 0 0 128
37.640511 52.445763 973.36713 0 0 128
37.636333 53.185574 973.26111 0 0 128
37.63131 53.924446 973.15094 0 0 128
37.626408 54.661732 973.02631 0 0 128
37.622288 55.40258 972.91046 0 0 128
37.616844 56.136513 972.76727 0 0 128
37.610901 56.865273 972.62695 0 0 128
37.603081 57.596844 972.4834 0 0 128
37.598801 58.332676 972.35699 0 0 128
37.595211 59.068474 972.24524 0 0 128
37.590206 59.803791 972.12543 0 0 128
37.585934 60.53825 971.99945 0 0 128
37.581371 61.27393 971.88391 0 0 128
37.576008 62.010063 971.76703 0 0 128
37.570801 62.744858 971.64557 0 0 128
37.566223 63.477837 971.52472 0 0 128
37.560745 64.212074 971.41345 0 0 128
37.558029 64.946625 971.29602 0 0 128
37.553295 65.680138 971.18134 0 0 128
37.548401 66.414848 971.06885 0 0 128
37.544529 67.149872 970.95239 0 0 128
37.541447 67.883842 970.83258 0 0 128
37.537689 68.616936 970.71478 0 0 128
37.532845 69.350441 970.59564 0 0 128
37.528706 70.084183 970.48071 0 0 128
37.523335 70.81839 970.36963 0 0 128
37.518871 71.552055 970.25702 0 0 128
37.5149 72.284431 970.14282 0 0 128
37.510674 73.01664 970.02423 0 0 128
