ply
format ascii 1.0
comment PCL generated
element vertex 1235
property float x
property float y
property float z
property uchar red
property uchar green
property uchar blue
element face 0
element camera 0
property float view_px
property float view_py
property float view_pz
property float x_axisx
property float x_axisy
property float x_axisz
property float y_axisx
property float y_axisy
property float y_axisz
property float z_axisx
property float z_axisy
property float z_axisz
property float focal
property float scalex
property float scaley
property float centerx
property float centery
property int viewportx
property int viewporty
property float k1
property float k2
end_header
18.234726 57.343552 968.26349 0 0 128
18.232586 58.075531 968.1485 0 0 128
18.230593 58.809334 968.04004 0 0 128
18.228689 59.541859 967.93744 0 0 128
18.226635 60.274822 967.82587 0 0 128
18.224634 61.006977 967.7179 0 0 128
18.222618 61.738522 967.60938 0 0 128
18.220596 62.468586 967.50165 0 0 128
18.218565 63.198292 967.39368 0 0 128
18.21641 63.928783 967.27777 0 0 128
18.214228 64.660065 967.15961 0 0 128
18.212053 65.391998 967.04102 0 0 128
18.209824 66.123917 966.91919 0 0 128
18.207653 66.855156 966.80103 0 0 128
18.205523 67.586342 966.68506 0 0 128
18.203365 68.317238 966.56763 0 0 128
18.20121 69.04734 966.45081 0 0 128
18.199137 69.777695 966.33826 0 0 128
18.197044 70.507782 966.22473 0 0 128
18.194954 71.237854 966.11102 0 0 128
18.192869 71.967651 965.9978 0 0 128
18.190714 72.697227 965.88062 0 0 128
18.188578 73.427162 965.76379 0 0 128
18.186403 74.156418 965.64545 0 0 128
18.184225 74.885368 965.52686 0 0 128
18.182068 75.614151 965.40955 0 0 128
18.179893 76.342567 965.29132 0 0 128
18.177692 77.071053 965.17126 0 0 128
18.175524 77.79908 965.05347 0 0 128
18.173372 78.527298 964.93616 0 0 128
18.171125 79.254799 964.81384 0 0 128
18.169086 79.982803 964.70294 0 0 128
18.167366 80.710716 964.61029 0 0 128
18.165421 81.4384 964.50464 0 0 128
18.1637 82.167496 964.4104 0 0 128
18.162136 82.896988 964.32458 0 0 128
18.160257 83.625061 964.22192 0 0 128
18.158751 84.354828 964.13879 0 0 128
18.157408 85.084831 964.06482 0 0 128
18.156565 85.81739 964.01703 0 0 128
18.154457 86.54287 963.90326 0 0 128
18.153059 87.271416 963.82727 0 0 128
18.152514 88.003624 963.79706 0 0 128
18.153934 88.743462 963.8736 0 0 132
18.157787 89.493019 964.08215 0 0 136
18.161917 90.242699 964.30737 0 0 132
18.275789 91.571732 970.32336 0 0 128
18.29668 92.417862 971.43011 0 0 128
19.418623 -89.696892 990.86963 0 0 128
19.416117 -88.926575 990.74628 0 0 128
19.413691 -88.157455 990.62646 0 0 128
19.411207 -87.389694 990.50281 0 0 128
19.408745 -86.621719 990.38055 0 0 128
19.40642 -85.854797 990.26501 0 0 128
19.404068 -85.087845 990.14819 0 0 128
19.401745 -84.321075 990.03284 0 0 128
19.399303 -83.554192 989.91132 0 0 128
19.396849 -82.787132 989.78937 0 0 128
19.394283 -82.019707 989.66174 0 0 128
19.391794 -81.253242 989.53766 0 0 128
19.389355 -80.487129 989.41608 0 0 128
19.386997 -79.721779 989.29858 0 0 128
19.384562 -78.956352 989.17706 0 0 128
19.382126 -78.191078 989.05548 0 0 128
19.379694 -77.42572 988.93433 0 0 128
19.377285 -76.660706 988.81421 0 0 128
19.374882 -75.895882 988.69446 0 0 128
19.372484 -75.131187 988.57483 0 0 128
19.370094 -74.366844 988.45563 0 0 128
19.367708 -73.602425 988.33673 0 0 128
19.365318 -72.838394 988.21741 0 0 128
19.362932 -72.074547 988.09839 0 0 128
19.360556 -71.311058 987.97968 0 0 128
19.358204 -70.547615 987.86237 0 0 128
19.355848 -69.78434 987.74481 0 0 128
19.353506 -69.021461 987.62775 0 0 128
19.351204 -68.259262 987.51257 0 0 128
19.348917 -67.497139 987.39832 0 0 128
19.346663 -66.735146 987.28577 0 0 128
19.344362 -65.97287 987.17084 0 0 128
19.342094 -65.211563 987.05743 0 0 128
19.339808 -64.450386 986.94293 0 0 128
19.337488 -63.689011 986.8269 0 0 128
19.335144 -62.927361 986.70966 0 0 128
19.332798 -62.166142 986.59229 0 0 128
19.330467 -61.40519 986.47552 0 0 128
19.328131 -60.644276 986.35858 0 0 128
19.325811 -59.883774 986.24237 0 0 128
19.323458 -59.123344 986.12445 0 0 128
19.321125 -58.362812 986.00757 0 0 128
19.318789 -57.602654 985.8905 0 0 128
19.316467 -56.842648 985.77423 0 0 128
19.314116 -56.082882 985.65625 0 0 128
19.31175 -55.323124 985.53766 0 0 128
19.309401 -54.563408 985.41992 0 0 128
19.307072 -53.804329 985.30304 0 0 128
19.304749 -53.04496 985.18665 0 0 128
19.302418 -52.286316 985.06952 0 0 128
19.300079 -51.527756 984.95209 0 0 128
19.297768 -50.769028 984.83612 0 0 128
19.295448 -50.010838 984.71967 0 0 128
19.293123 -49.252792 984.60278 0 0 128
19.290821 -48.49472 984.48724 0 0 128
19.288437 -47.737343 984.36719 0 0 128
19.286087 -46.979668 984.24902 0 0 128
19.2838 -46.222351 984.13409 0 0 128
19.281506 -45.46513 984.01874 0 0 128
19.279213 -44.708233 983.90338 0 0 128
19.276901 -43.951324 983.78711 0 0 128
19.27462 -43.19455 983.67236 0 0 128
19.27232 -42.438248 983.55658 0 0 128
19.270035 -41.681946 983.44165 0 0 128
19.267729 -40.925812 983.3255 0 0 128
19.265446 -40.169922 983.21045 0 0 128
19.263149 -39.414326 983.09479 0 0 128
19.260851 -38.658836 982.97894 0 0 128
19.258533 -37.903374 982.86218 0 0 128
19.256279 -37.149353 982.74841 0 0 128
19.254028 -36.394798 982.63489 0 0 128
19.251785 -35.640919 982.52167 0 0 128
19.249516 -34.886803 982.40717 0 0 128
19.247272 -34.133156 982.29388 0 0 128
19.24506 -33.379402 982.18231 0 0 128
19.480419 -30.902298 994.32678 128 0 0
19.469643 -30.189812 993.76233 128 0 0
19.453611 -29.574509 992.92914 240 0 0
19.448805 -28.813633 992.67169 255 8 0
19.442305 -28.030523 992.32782 255 24 0
19.435026 -27.241556 991.94409 255 44 0
19.424824 -26.527653 991.4118 255 68 0
19.415531 -25.77891 990.92596 142 255 114
19.410793 -25.193644 990.67639 255 172 0
19.408411 -24.579836 990.54761 255 104 0
19.41 -23.864479 990.62018 255 100 0
19.41293 -23.145741 990.76141 255 136 0
19.411583 -22.464247 990.6864 255 104 0
19.41501 -21.813747 990.85675 255 128 0
19.415678 -21.128475 990.88599 255 120 0
19.416227 -20.417433 990.90869 255 144 0
19.414454 -19.780418 990.81726 255 120 0
19.379473 -19.677658 989.0545 0 8 255
19.376965 -18.959162 988.92627 0 0 236
19.367399 -18.203711 988.43719 0 0 172
19.383553 -17.647106 989.26813 0 0 164
19.382782 -16.935658 989.2309 0 0 164
19.378048 -16.19322 988.99042 0 0 152
19.374189 -15.443443 988.79443 0 0 144
19.370768 -14.689701 988.62048 0 0 132
19.368864 -13.934268 988.5238 0 0 180
19.365339 -13.186413 988.34503 0 0 128
19.361774 -12.434949 988.164 0 0 128
19.357899 -11.680305 987.96692 0 0 128
19.353567 -10.925165 987.74646 0 0 128
19.349518 -10.170897 987.54047 0 0 128
19.345932 -9.4162855 987.35803 0 0 128
19.342154 -8.6627426 987.16583 0 0 128
19.338566 -7.9115796 986.9837 0 0 128
19.334728 -7.1533008 986.78784 0 0 128
19.331329 -6.3958254 986.61432 0 0 128
19.32692 -5.6340036 986.38855 0 0 128
19.324181 -4.8901725 986.25061 0 0 132
19.351484 -4.1464272 987.6449 0 96 255
19.351727 -3.3907824 987.65735 0 120 255
19.351892 -2.634052 987.66559 0 152 255
19.351196 -1.8754463 987.62952 0 156 255
19.350416 -1.1203555 987.58972 0 172 255
19.349352 -0.36594385 987.53546 0 0 132
19.347759 0.38946295 987.45404 0 0 132
19.346418 1.143093 987.38574 0 0 132
19.344688 1.8977474 987.2973 0 0 132
19.343716 2.6528616 987.24744 0 0 136
19.340584 3.4062259 987.08746 0 0 132
19.336428 4.1580138 986.87561 0 0 136
19.333277 4.9116869 986.7146 0 0 136
19.330706 5.6654172 986.58301 0 0 132
19.327078 6.4182458 986.39752 0 0 132
19.324371 7.1724086 986.25873 0 0 132
19.319689 7.9199748 986.02057 0 0 132
19.314917 8.6691294 985.77734 0 0 132
19.31097 9.4213409 985.57532 0 0 136
19.310446 10.176932 985.54736 0 0 140
19.308884 10.932864 985.466 0 0 140
19.310402 11.691588 985.54163 0 0 132
19.305845 12.441069 985.30872 0 0 128
19.277954 13.160469 983.88934 0 0 132
19.276449 13.908018 983.81305 0 0 132
19.275429 14.656658 983.76129 0 0 132
19.27471 15.409502 983.72339 0 0 132
19.273466 16.162069 983.65875 0 0 128
19.272787 16.914774 983.62286 0 0 128
19.272749 17.666769 983.62018 0 0 128
19.272295 18.41913 983.59583 0 0 128
19.27265 19.171034 983.61316 0 0 128
19.273357 19.923347 983.64862 0 0 128
19.274248 20.676344 983.69299 0 0 128
19.274075 21.42664 983.68378 0 0 128
19.274364 22.169895 983.70142 0 0 128
19.276409 22.920128 983.80652 0 0 128
19.273479 23.659966 983.65967 0 0 128
19.276192 24.424006 983.79352 0 0 128
19.272018 25.128033 983.59808 0 0 132
19.267179 25.866518 983.35345 0 0 128
19.267841 26.574535 983.40668 0 0 132
19.273586 27.266796 983.73022 0 140 255
19.217775 27.610077 981.0307 0 0 228
19.211214 28.276331 980.73163 0 0 128
19.202646 28.974592 980.31476 0 0 128
19.195152 29.645481 979.96631 0 0 128
19.188643 30.323046 979.66608 0 0 128
19.179401 31.013983 979.21863 0 0 128
19.172031 31.689846 978.87555 0 0 128
19.168943 32.333794 978.77032 0 0 192
19.158501 33.032383 978.25787 0 0 156
19.156178 33.760258 978.15259 0 0 128
19.151892 34.415852 977.98138 0 0 128
19.148958 35.111797 977.86108 0 0 128
19.144859 35.858196 977.65497 255 8 0
19.142632 36.639019 977.52808 255 8 0
19.035278 38.23521 971.4693 0 0 128
19.033047 38.972744 971.354 0 0 128
19.030781 39.709835 971.23706 0 0 128
19.028509 40.447147 971.11957 0 0 128
19.02631 41.184277 971.0058 0 0 128
19.024193 41.922379 970.89563 0 0 128
19.021978 42.658184 970.78162 0 0 128
19.019674 43.393124 970.66327 0 0 128
19.017397 44.128036 970.54626 0 0 128
19.015169 44.863499 970.4314 0 0 128
19.012945 45.599533 970.31635 0 0 128
19.010778 46.335152 970.20428 0 0 128
19.008501 47.070782 970.08636 0 0 128
19.00633 47.80603 969.97406 0 0 128
19.00416 48.541965 969.86121 0 0 128
19.002003 49.277721 969.74902 0 0 128
18.999599 50.013744 969.62354 0 0 128
18.996792 50.741413 969.48236 0 0 128
18.993999 51.477749 969.33569 0 0 128
18.992022 52.214481 969.23163 0 0 128
18.989248 52.942734 969.09137 0 0 128
18.987398 53.680466 968.9931 0 0 128
18.985161 54.417099 968.875 0 0 128
18.982477 55.150551 968.73511 0 0 128
18.980438 55.885986 968.62799 0 0 128
18.978344 56.618797 968.51984 0 0 128
18.976326 57.352097 968.41504 0 0 128
18.974205 58.084641 968.30536 0 0 128
18.972256 58.820152 968.20227 0 0 128
18.969982 59.551285 968.08521 0 0 128
18.96784 60.284813 967.97314 0 0 128
18.965927 61.018162 967.87317 0 0 128
18.963705 61.74892 967.75873 0 0 128
18.961592 62.479416 967.65021 0 0 128
18.95948 63.208851 967.54248 0 0 128
18.957384 63.939632 967.43427 0 0 128
18.955206 64.671333 967.32086 0 0 128
18.952927 65.403297 967.20142 0 0 128
18.950623 66.134697 967.08105 0 0 128
18.94832 66.865952 966.96063 0 0 128
18.946074 67.59713 966.84314 0 0 128
18.943808 68.327667 966.72504 0 0 128
18.941616 69.058189 966.61072 0 0 128
18.939486 69.789238 966.49915 0 0 128
18.937279 70.519653 966.38379 0 0 128
18.935123 71.250031 966.27106 0 0 128
18.932934 71.979912 966.15668 0 0 128
18.930698 72.709671 966.03986 0 0 128
18.928461 73.4394 965.92267 0 0 128
18.926203 74.168732 965.80444 0 0 128
18.923962 74.89785 965.68732 0 0 128
18.921698 75.626755 965.56891 0 0 128
18.919424 76.355385 965.45001 0 0 128
18.91715 77.083832 965.33112 0 0 128
18.914917 77.812172 965.21429 0 0 128
18.912632 78.540703 965.09424 0 0 128
18.910305 79.267967 964.97296 0 0 128
18.908178 79.995644 964.86206 0 0 128
18.906382 80.72364 964.7691 0 0 128
18.904324 81.451782 964.66132 0 0 128
18.902428 82.180458 964.56171 0 0 128
18.900743 82.910133 964.47266 0 0 128
18.898975 83.639023 964.37952 0 0 128
18.898071 84.37159 964.33063 0 0 128
18.896231 85.099632 964.23413 0 0 128
18.894108 85.826241 964.12323 0 0 128
18.892687 86.555656 964.0484 0 0 128
18.891422 87.285629 963.98169 0 0 128
18.890982 88.018791 963.95752 0 0 128
18.890879 88.75235 963.95197 0 0 132
18.893305 89.49543 964.07837 0 0 140
18.898451 90.249283 964.34637 0 0 140
18.906672 91.020477 964.76892 0 0 128
19.042707 92.437294 971.68414 0 0 128
20.177633 -89.713211 991.01733 0 0 128
20.175159 -88.942543 990.90082 0 0 128
20.172794 -88.173492 990.789 0 0 128
20.170332 -87.405586 990.67145 0 0 128
20.16786 -86.637283 990.55365 0 0 128
20.165409 -85.870064 990.43652 0 0 128
20.162968 -85.102928 990.31976 0 0 128
20.160482 -84.335732 990.20099 0 0 128
20.157988 -83.568779 990.08154 0 0 128
20.155462 -82.801849 989.96063 0 0 128
20.152824 -82.034187 989.83441 0 0 128
20.150236 -81.267609 989.71033 0 0 128
20.147688 -80.501175 989.58813 0 0 128
20.145206 -79.735535 989.46912 0 0 128
20.142683 -78.969994 989.34796 0 0 128
20.140162 -78.204552 989.22687 0 0 128
20.13765 -77.439369 989.10626 0 0 128
20.135164 -76.674271 988.987 0 0 128
20.132668 -75.909225 988.86719 0 0 128
20.130169 -75.144562 988.74725 0 0 128
20.12768 -74.379875 988.62781 0 0 128
20.125193 -73.615402 988.50842 0 0 128
20.122721 -72.85125 988.38971 0 0 128
20.120249 -72.087349 988.27094 0 0 128
20.117773 -71.323578 988.15192 0 0 128
20.11532 -70.560059 988.03406 0 0 128
20.112885 -69.79673 987.91705 0 0 128
20.110451 -69.033867 987.80005 0 0 128
20.10808 -68.271553 987.68597 0 0 128
20.105711 -67.509224 987.57202 0 0 128
20.10335 -66.74688 987.45862 0 0 128
20.10096 -65.984207 987.34387 0 0 128
20.098522 -65.222366 987.22638 0 0 128
20.096081 -64.460953 987.10858 0 0 128
20.093628 -63.6991 986.99054 0 0 128
20.091219 -62.937737 986.87451 0 0 128
20.088863 -62.176701 986.76105 0 0 128
20.086447 -61.415577 986.64465 0 0 128
20.084034 -60.654655 986.52844 0 0 128
20.081623 -59.894051 986.41211 0 0 128
20.079206 -59.133511 986.29553 0 0 128
20.076777 -58.373238 986.17828 0 0 128
20.074333 -57.612801 986.06049 0 0 128
20.071907 -56.852711 985.94342 0 0 128
20.069443 -56.092659 985.82452 0 0 128
20.067007 -55.33287 985.70697 0 0 128
20.06459 -54.573246 985.59039 0 0 128
20.062172 -53.813881 985.47357 0 0 128
20.059753 -53.05452 985.35681 0 0 128
20.057339 -52.29549 985.24023 0 0 128
20.05492 -51.536709 985.12335 0 0 128
20.052485 -50.777893 985.00562 0 0 128
20.050014 -50.019417 984.88611 0 0 128
20.047573 -49.261337 984.76807 0 0 128
20.045166 -48.503262 984.65161 0 0 128
20.042782 -47.745739 984.53632 0 0 128
20.040392 -46.988029 984.42065 0 0 128
20.037979 -46.230202 984.30396 0 0 128
20.035599 -45.472904 984.18878 0 0 128
20.033216 -44.715805 984.07343 0 0 128
20.030807 -43.958691 983.95685 0 0 128
20.028463 -43.202076 983.84332 0 0 128
20.026075 -42.445629 983.7276 0 0 128
20.023684 -41.689228 983.61169 0 0 128
20.021292 -40.932972 983.49573 0 0 128
20.018902 -40.177067 983.37988 0 0 128
20.016504 -39.421108 983.26361 0 0 128
20.014111 -38.665443 983.14752 0 0 128
20.011702 -37.909904 983.03064 0 0 128
20.009302 -37.15485 982.91418 0 0 128
20.007004 -36.400925 982.80249 0 0 128
20.004639 -35.646751 982.68762 0 0 128
20.002317 -34.892731 982.57489 0 0 128
19.99996 -34.138603 982.46039 0 0 128
19.997656 -33.384834 982.34845 0 0 128
20.225618 -31.028622 993.67126 128 0 0
20.219231 -30.262671 993.34528 128 0 0
20.2141 -29.509916 993.08093 128 0 0
20.208797 -28.761112 992.80835 128 0 0
20.201227 -27.985374 992.42456 255 0 0
20.195837 -27.199518 992.14752 255 24 0
20.184685 -26.427927 991.58746 255 8 0
20.180086 -25.616089 991.34814 102 255 154
20.157658 -24.967318 990.23798 214 255 42
20.153162 -24.533371 990.01447 255 148 0
20.148458 -23.898157 989.77722 255 12 0
20.164804 -23.072773 990.56879 255 180 0
20.168331 -22.425171 990.73682 255 116 0
20.16688 -21.723927 990.6593 255 92 0
20.169199 -21.088301 990.77032 255 88 0
20.171961 -20.342604 990.89905 255 112 0
20.163521 -19.730366 990.48492 255 84 0
20.164909 -19.022697 990.54944 50 255 206
20.133856 -18.934988 989.05054 0 28 255
20.128719 -18.157312 988.79614 0 0 244
20.127342 -17.502674 988.73151 0 0 216
20.138649 -16.889906 989.29236 0 0 248
20.14468 -16.184443 989.59088 0 0 248
20.137495 -15.44329 989.23932 0 0 128
20.133881 -14.691089 989.06244 0 0 128
20.129013 -13.937115 988.8241 0 0 128
20.124477 -13.186284 988.60223 0 0 128
20.121269 -12.436562 988.44568 0 0 128
20.118189 -11.683116 988.2951 0 0 128
20.114027 -10.928216 988.09125 0 0 128
20.110037 -10.172012 987.89575 0 0 128
20.10594 -9.4176311 987.69513 0 0 128
20.101957 -8.6632242 987.5 0 0 128
20.097977 -7.9088912 987.30499 0 0 128
20.094002 -7.1537118 987.11017 0 0 128
20.090672 -6.397089 986.94672 0 0 128
20.08732 -5.6449575 986.78278 0 0 128
20.083769 -4.8909478 986.60858 0 0 128
20.080576 -4.1382551 986.45227 0 0 128
20.076286 -3.3801806 986.24115 0 0 132
20.073824 -2.6320877 986.12134 0 0 128
20.070463 -1.8791782 985.95648 0 0 128
20.104229 -1.1202534 987.61395 0 136 255
20.103695 -0.36198732 987.58716 0 148 255
20.103077 0.39252076 987.55682 0 160 255
20.100721 1.1491987 987.44061 0 136 255
20.10033 1.9054288 987.4209 0 160 255
20.097719 2.6586778 987.29272 0 0 136
20.093616 3.4122031 987.09106 0 0 132
20.08876 4.1628399 986.85284 0 0 132
20.084291 4.914659 986.63336 0 0 132
20.082678 5.6703138 986.55334 0 0 132
20.078705 6.4228406 986.35791 0 0 132
20.077751 7.1768279 986.31067 0 0 128
20.076424 7.9313245 986.24469 0 0 128
20.070122 8.6822681 985.93475 0 0 132
20.067574 9.4328375 985.80957 0 0 132
20.066732 10.184271 985.76819 0 0 132
20.03548 10.912384 984.23492 0 0 128
20.034061 11.672166 984.16217 0 0 128
20.033077 12.423944 984.11322 0 0 128
20.033484 13.170787 984.13428 0 0 128
20.032784 13.918641 984.10052 0 0 128
20.031757 14.670486 984.04938 0 0 128
20.031099 15.42008 984.01709 0 0 128
20.030199 16.171333 983.97217 0 0 128
20.029926 16.923777 983.95782 0 0 128
20.029873 17.674603 983.9549 0 0 128
20.029984 18.426077 983.95984 0 0 128
20.030691 19.176199 983.99475 0 0 128
20.031288 19.92659 984.02411 0 0 128
20.031891 20.680544 984.05243 0 0 128
20.03129 21.429277 984.02307 0 0 128
20.03334 22.185545 984.12213 0 0 128
20.032698 22.903091 984.10327 0 0 128
20.035069 23.677914 984.21088 0 0 128
20.037037 24.426805 984.30908 0 0 128
20.029884 25.088758 983.99109 0 0 128
20.023281 25.840517 983.66284 0 0 128
19.979769 26.151974 981.68756 0 0 128
19.9694 26.857126 981.19354 0 0 128
19.961735 27.536213 980.84509 0 0 128
19.95414 28.217649 980.49957 0 0 128
19.948584 28.893703 980.2583 0 0 128
19.94116 29.580389 979.91986 0 0 128
19.932581 30.26792 979.5238 128 0 0
19.923477 30.948725 979.10486 0 0 128
19.920395 31.580622 979.00885 180 0 0
19.912218 32.248379 978.64319 0 0 204
19.904629 32.922897 978.30414 0 0 180
19.898485 33.611904 978.03101 0 0 168
19.89513 34.370441 977.8645 0 0 132
19.894054 35.088078 977.8313 255 20 0
19.890238 35.887135 977.6214 255 36 0
19.781866 37.503834 971.74268 0 0 128
19.779535 38.241154 971.62708 0 0 128
19.777233 38.97871 971.5127 0 0 128
19.774878 39.716408 971.39532 0 0 128
19.772539 40.453674 971.27905 0 0 128
19.770311 41.191097 971.16803 0 0 128
19.76808 41.92905 971.0564 0 0 128
19.76568 42.663712 970.93811 0 0 128
19.763336 43.39967 970.82178 0 0 128
19.761065 44.136143 970.70874 0 0 128
19.758743 44.871273 970.59375 0 0 128
19.756601 45.608597 970.48639 0 0 128
19.754353 46.343998 970.37469 0 0 128
19.752003 47.079941 970.25745 0 0 128
19.749903 47.816399 970.15234 0 0 128
19.74778 48.552963 970.04584 0 0 128
19.745552 49.291122 969.93286 0 0 128
19.742508 50.023983 969.78174 0 0 128
19.739853 50.756058 969.65076 0 0 128
19.737797 51.493038 969.54681 0 0 128
19.734709 52.216835 969.39929 0 0 128
19.732023 52.951366 969.26471 0 0 128
19.729046 53.684177 969.11621 0 0 128
19.726206 54.411446 968.97852 0 0 128
19.724197 55.150455 968.87482 0 0 128
19.721704 55.886383 968.74829 0 0 128
19.719578 56.621429 968.64099 0 0 128
19.717386 57.354538 968.53168 0 0 128
19.715582 58.090927 968.43951 0 0 128
19.713604 58.824947 968.34021 0 0 128
19.71147 59.557014 968.23413 0 0 128
19.709581 60.291702 968.13867 0 0 128
19.707434 61.026833 968.02924 0 0 128
19.705173 61.758877 967.91626 0 0 128
19.702911 62.490097 967.80371 0 0 128
19.700748 63.220516 967.69684 0 0 128
19.698599 63.951183 967.59027 0 0 128
19.696342 64.682693 967.47736 0 0 128
19.693998 65.414284 967.35968 0 0 128
19.691614 66.145699 967.23987 0 0 128
19.689257 66.877258 967.12109 0 0 128
19.686853 67.607704 967.00079 0 0 128
19.684536 68.338448 966.88446 0 0 128
19.682272 69.069885 966.7702 0 0 128
19.680025 69.800568 966.65729 0 0 128
19.677784 70.531548 966.54425 0 0 128
19.675508 71.261696 966.42987 0 0 128
19.673233 71.991692 966.31555 0 0 128
19.670912 72.721687 966.19861 0 0 128
19.668585 73.451508 966.0813 0 0 128
19.666237 74.181007 965.96307 0 0 128
19.663931 74.910255 965.84705 0 0 128
19.661598 75.639229 965.7298 0 0 128
19.659246 76.367996 965.61133 0 0 128
19.656935 77.096611 965.49506 0 0 128
19.654596 77.825722 965.37671 0 0 128
19.652122 78.553429 965.25232 0 0 128
19.64971 79.280876 965.13123 0 0 128
19.647429 80.007408 965.01788 0 0 128
19.645647 80.736809 964.92804 0 0 128
19.643625 81.46566 964.82574 0 0 128
19.641573 82.194366 964.72186 0 0 128
19.639505 82.922729 964.61725 0 0 128
19.638412 83.655052 964.56067 0 0 128
19.636351 84.382683 964.45679 0 0 128
19.634924 85.112961 964.38416 0 0 128
19.633451 85.842911 964.30908 0 0 128
19.632336 86.57412 964.25195 0 0 128
19.631521 87.305786 964.21033 0 0 128
19.631727 88.041367 964.21954 0 0 128
19.633053 88.781197 964.28473 0 0 132
19.637543 89.53083 964.51062 0 0 136
19.641254 90.282204 964.69275 0 0 132
19.645693 91.03344 964.91486 0 0 128
19.788008 92.459435 971.87427 0 0 128
20.9375 -89.730492 991.19586 0 0 128
20.9349 -88.959625 991.07764 0 0 128
20.932423 -88.190109 990.96478 0 0 128
20.929836 -87.421532 990.84601 0 0 128
20.927288 -86.653358 990.72894 0 0 128
20.924725 -85.885551 990.6109 0 0 128
20.922152 -85.118027 990.49237 0 0 128
20.919569 -84.350731 990.37335 0 0 128
20.916975 -83.583611 990.25366 0 0 128
20.91427 -82.815849 990.12897 0 0 128
20.911634 -82.049034 990.0072 0 0 128
20.908953 -81.282303 989.88318 0 0 128
20.906301 -80.515594 989.76086 0 0 128
20.903742 -79.749458 989.6427 0 0 128
20.901102 -78.983917 989.52039 0 0 128
20.898483 -78.218231 989.39923 0 0 128
20.895889 -77.453156 989.27905 0 0 128
20.893282 -76.687851 989.15845 0 0 128
20.890709 -75.922729 989.03949 0 0 128
20.888115 -75.157974 988.91943 0 0 128
20.88554 -74.393089 988.80029 0 0 128
20.882954 -73.628654 988.6806 0 0 128
20.880388 -72.864197 988.56189 0 0 128
20.877823 -72.100121 988.44318 0 0 128
20.875273 -71.336189 988.32507 0 0 128
20.872746 -70.572479 988.20813 0 0 128
20.870203 -69.809036 988.09033 0 0 128
20.867704 -69.046379 987.97437 0 0 128
20.865227 -68.283791 987.8595 0 0 128
20.862749 -67.521049 987.74475 0 0 128
20.860323 -66.758583 987.63245 0 0 128
20.857796 -65.995819 987.51538 0 0 128
20.85528 -65.233818 987.39862 0 0 128
20.852749 -64.472168 987.28094 0 0 128
20.850214 -63.710278 987.16327 0 0 128
20.847679 -62.948681 987.04559 0 0 128
20.845171 -62.187176 986.9292 0 0 128
20.842653 -61.425922 986.81226 0 0 128
20.840115 -60.664799 986.69427 0 0 128
20.837585 -59.90382 986.57672 0 0 128
20.835077 -59.143288 986.46008 0 0 128
20.832571 -58.382935 986.34357 0 0 128
20.830021 -57.622597 986.22491 0 0 128
20.827534 -56.862293 986.10931 0 0 128
20.825024 -56.102371 985.99255 0 0 128
20.822464 -55.34256 985.87341 0 0 128
20.819944 -54.582832 985.75616 0 0 128
20.817425 -53.823277 985.63892 0 0 128
20.814922 -53.063877 985.52246 0 0 128
20.812407 -52.304646 985.40533 0 0 128
20.809902 -51.545559 985.28876 0 0 128
20.807392 -50.786701 985.17188 0 0 128
20.804899 -50.028358 985.05566 0 0 128
20.802435 -49.270084 984.94086 0 0 128
20.799906 -48.511864 984.82288 0 0 128
20.797421 -47.753723 984.70709 0 0 128
20.79496 -46.996037 984.59235 0 0 128
20.792446 -46.238346 984.4751 0 0 128
20.789967 -45.480827 984.35938 0 0 128
20.787479 -44.723412 984.24335 0 0 128
20.784985 -43.966213 984.12701 0 0 128
20.782539 -43.209579 984.01282 0 0 128
20.780052 -42.452904 983.89661 0 0 128
20.777576 -41.6964 983.78107 0 0 128
20.775101 -40.940128 983.66534 0 0 128
20.772633 -40.183949 983.55005 0 0 128
20.77013 -39.427807 983.43298 0 0 128
20.767637 -38.671932 983.31653 0 0 128
20.765137 -37.916241 983.19952 0 0 128
20.762621 -37.160908 983.08185 0 0 128
20.760202 -36.406723 982.96857 0 0 128
20.757761 -35.652542 982.85425 0 0 128
20.755333 -34.898464 982.74054 0 0 128
20.752888 -34.14397 982.6261 0 0 128
20.750511 -33.390308 982.51483 0 0 128
20.748089 -32.636784 982.40131 0 0 128
20.979542 -30.217171 993.46808 128 0 0
20.973778 -29.464642 993.18298 128 0 0
20.968655 -28.703535 992.92847 128 0 0
20.960493 -27.9475 992.53027 128 0 0
20.958775 -27.115086 992.43616 255 28 0
20.946629 -26.379263 991.84955 255 16 0
20.939087 -25.610542 991.48022 128 0 0
20.924801 -24.854525 990.7923 128 0 0
20.894741 -24.386631 989.36725 255 180 0
20.899851 -23.802647 989.60413 255 124 0
20.905392 -23.191521 989.86169 255 144 0
20.927162 -22.327286 990.87976 162 255 94
20.924059 -21.633642 990.72693 190 255 66
20.925678 -21.048124 990.8028 174 255 82
20.927828 -20.231451 990.89417 146 255 110
20.919603 -19.661781 990.50739 178 255 78
20.919874 -18.926924 990.51489 190 255 66
20.92321 -18.203115 990.66827 190 255 66
20.888775 -18.020428 989.06531 0 48 255
20.875607 -17.450315 988.44861 0 0 168
20.86735 -16.752279 988.05963 0 0 148
20.87203 -15.970448 988.27881 0 0 176
20.907515 -15.456606 989.9704 0 0 128
20.901648 -14.697134 989.69299 0 0 128
20.896547 -13.957936 989.45319 0 0 128
20.889109 -13.195283 989.10126 0 0 128
20.882627 -12.436488 988.79492 0 0 128
20.877865 -11.686852 988.5705 0 0 128
20.875406 -10.929997 988.45447 0 0 128
20.871 -10.174159 988.2464 0 0 128
20.866634 -9.4179478 988.0401 0 0 128
20.86261 -8.6633701 987.8501 0 0 128
20.85848 -7.9085035 987.65509 0 0 128
20.854483 -7.1540933 987.46631 0 0 128
20.850447 -6.3983545 987.27551 0 0 128
20.846678 -5.6429896 987.09729 0 0 128
20.843527 -4.8868084 986.94812 0 0 128
20.840046 -4.1327868 986.78357 0 0 128
20.836117 -3.3772097 986.59753 0 0 128
20.833168 -2.6288254 986.45898 0 0 128
20.829817 -1.8730341 986.30005 0 0 132
20.826969 -1.1254299 986.16638 0 0 128
20.824087 -0.36987278 986.0296 0 0 128
20.821573 0.38446096 985.91052 0 0 128
20.820955 1.1333259 985.88214 0 0 128
20.819618 1.8901998 985.81805 0 0 132
20.816879 2.6455445 985.68774 0 0 132
20.812822 3.4005914 985.49506 0 0 128
20.843023 4.168014 986.92303 0 96 255
20.839767 4.9206042 986.76886 0 76 255
20.836447 5.67415 986.61121 0 68 255
20.80517 6.4114218 985.13165 0 0 132
20.803249 7.1653495 985.03998 0 0 132
20.800211 7.9143806 984.89642 0 0 128
20.798115 8.6697922 984.79584 0 0 128
20.797024 9.4192076 984.74451 0 0 128
20.794518 10.179096 984.62311 0 0 128
20.793413 10.93002 984.5705 0 0 128
20.792469 11.685821 984.52411 0 0 128
20.791697 12.435291 984.48767 0 0 128
20.791107 13.183825 984.46021 0 0 128
20.790054 13.928224 984.41193 0 0 128
20.789154 14.678841 984.36896 0 0 128
20.788782 15.426961 984.35193 0 0 128
20.788406 16.17823 984.3338 0 0 128
20.788446 16.930248 984.33502 0 0 128
20.788849 17.681892 984.35376 0 0 128
20.788603 18.429043 984.34302 0 0 128
20.788769 19.184877 984.34894 0 0 128
20.78907 19.935734 984.3631 0 0 128
20.790541 20.672428 984.43817 0 0 128
20.789881 21.409153 984.41168 0 0 128
20.79059 22.174854 984.43982 0 0 128
20.7955 22.946911 984.66595 0 0 128
20.794582 23.666744 984.63416 0 0 128
20.79611 24.399 984.71454 0 0 128
20.788311 25.071316 984.37323 0 0 128
20.731726 25.412066 981.83099 0 0 128
20.721159 26.109127 981.34869 0 0 176
20.713493 26.779871 981.01617 0 0 128
20.706047 27.462963 980.68945 0 0 128
20.697134 28.147572 980.29236 0 0 128
20.689697 28.834429 979.96527 128 0 0
20.682806 29.517832 979.66626 144 0 0
20.675562 30.192629 979.35431 176 0 0
20.666656 30.874611 978.96002 228 0 0
20.663858 31.488804 978.88892 224 0 0
20.655174 32.169289 978.5069 0 0 192
20.646969 32.85672 978.14526 0 0 176
20.641054 33.540749 977.89545 0 0 164
20.63567 34.203876 977.68115 0 0 156
20.629221 34.890934 977.40521 255 100 0
20.528822 36.771484 972.01398 0 0 128
20.526484 37.509842 971.90186 0 0 128
20.524044 38.247097 971.78528 0 0 128
20.521648 38.985199 971.67029 0 0 128
20.519194 39.722935 971.55249 0 0 128
20.516817 40.460121 971.43872 0 0 128
20.514544 41.19849 971.32904 0 0 128
20.512114 41.934383 971.21313 0 0 128
20.50971 42.670567 971.09821 0 0 128
20.507328 43.407131 970.98395 0 0 128
20.505024 44.143803 970.87335 0 0 128
20.502668 44.880135 970.76038 0 0 128
20.500235 45.615944 970.64362 0 0 128
20.497757 46.351276 970.52496 0 0 128
20.495621 47.087826 970.42218 0 0 128
20.493382 47.825848 970.31317 0 0 128
20.490997 48.562283 970.198 0 0 128
20.488646 49.300545 970.08313 0 0 128
20.486116 50.037083 969.96045 0 0 128
20.483046 50.770462 969.81317 0 0 128
20.480434 51.501804 969.68964 0 0 128
20.477695 52.229069 969.56238 0 0 128
20.474804 52.959267 969.4256 0 0 128
20.471836 53.689671 969.28485 0 0 128
20.466263 54.400688 969.02917 0 0 128
20.4629 55.128746 968.8703 0 0 128
20.460018 55.861538 968.73169 0 0 128
20.459143 56.610329 968.68036 0 0 128
20.458229 57.35223 968.63196 0 0 128
20.45676 58.093117 968.55676 0 0 128
20.455111 58.831047 968.47443 0 0 128
20.453224 59.565506 968.38293 0 0 128
20.451332 60.301441 968.28992 0 0 128
20.449175 61.035995 968.18463 0 0 128
20.446802 61.768345 968.07013 0 0 128
20.444567 62.501266 967.96191 0 0 128
20.442265 63.232548 967.85138 0 0 128
20.440039 63.96236 967.74579 0 0 128
20.437698 64.693443 967.6333 0 0 128
20.435337 65.425301 967.5191 0 0 128
20.432842 66.156647 967.39838 0 0 128
20.430353 66.887444 967.27826 0 0 128
20.427887 67.618469 967.15887 0 0 128
20.425491 68.349564 967.04285 0 0 128
20.423149 69.081039 966.92896 0 0 128
20.420826 69.812096 966.81622 0 0 128
20.418463 70.542831 966.70154 0 0 128
20.416136 71.273376 966.58868 0 0 128
20.413784 72.003693 966.47455 0 0 128
20.411358 72.733742 966.35687 0 0 128
20.408951 73.463692 966.23993 0 0 128
20.406565 74.193497 966.12408 0 0 128
20.404182 74.922905 966.00854 0 0 128
20.401804 75.651459 965.8938 0 0 128
20.399385 76.380562 965.77631 0 0 128
20.39694 77.110039 965.65698 0 0 128
20.394369 77.83815 965.53229 0 0 128
20.391834 78.566162 965.4093 0 0 128
20.389317 79.292816 965.28833 0 0 128
20.386923 80.019821 965.17322 0 0 128
20.385138 80.749977 965.08588 0 0 128
20.383045 81.479164 964.98376 0 0 128
20.381063 82.208504 964.8869 0 0 128
20.37903 82.937599 964.78748 0 0 128
20.377375 83.667671 964.7063 0 0 128
20.375488 84.3965 964.61444 0 0 128
20.373653 85.125603 964.52472 0 0 128
20.371916 85.855019 964.43958 0 0 128
20.370426 86.584816 964.3667 0 0 128
20.369274 87.315315 964.31049 0 0 128
20.368475 88.045837 964.27246 0 0 128
20.36937 88.783081 964.31525 0 0 128
20.373344 89.531067 964.50702 0 0 132
20.379486 90.287094 964.80341 0 0 136
20.379005 91.015381 964.78491 0 0 152
20.533808 92.47802 972.07916 0 0 128
21.694906 -88.977928 991.25354 0 0 128
21.692272 -88.207245 991.138 0 0 128
21.689581 -87.437538 991.01917 0 0 128
21.686956 -86.668983 990.90302 0 0 128
21.684296 -85.901253 990.78473 0 0 128
21.681602 -85.133591 990.66486 0 0 128
21.678957 -84.366371 990.54706 0 0 128
21.676258 -83.598885 990.42706 0 0 128
21.67354 -82.831635 990.30603 0 0 128
21.670725 -82.064117 990.1806 0 0 128
21.667934 -81.296585 990.0564 0 0 128
21.66523 -80.530006 989.93585 0 0 128
21.662518 -79.763504 989.815 0 0 128
21.659805 -78.997917 989.69366 0 0 128
21.657078 -78.232109 989.5719 0 0 128
21.65436 -77.46666 989.45038 0 0 128
21.65167 -76.701515 989.33026 0 0 128
21.648983 -75.936203 989.21027 0 0 128
21.646338 -75.171097 989.09222 0 0 128
21.643667 -74.40638 988.97296 0 0 128
21.640997 -73.641808 988.8537 0 0 128
21.638334 -72.877388 988.73468 0 0 128
21.635687 -72.112953 988.61652 0 0 128
21.633045 -71.348801 988.49854 0 0 128
21.630426 -70.584938 988.38159 0 0 128
21.62779 -69.821564 988.26361 0 0 128
21.625204 -69.058685 988.14783 0 0 128
21.622639 -68.29599 988.03308 0 0 128
21.62011 -67.533302 987.91998 0 0 128
21.617556 -66.770218 987.80591 0 0 128
21.61491 -66.007591 987.68744 0 0 128
21.612286 -65.245285 987.57001 0 0 128
21.609663 -64.48349 987.45233 0 0 128
21.60705 -63.721584 987.33521 0 0 128
21.604427 -62.959755 987.21777 0 0 128
21.601807 -62.198132 987.10028 0 0 128
21.599188 -61.436691 986.98291 0 0 128
21.59659 -60.675415 986.86646 0 0 128
21.593966 -59.914467 986.74872 0 0 128
21.591347 -59.153572 986.63129 0 0 128
21.588741 -58.393078 986.51428 0 0 128
21.586098 -57.632534 986.39563 0 0 128
21.583492 -56.872288 986.27863 0 0 128
21.580877 -56.112144 986.16125 0 0 128
21.578268 -55.352386 986.04401 0 0 128
21.575647 -54.592495 985.92633 0 0 128
21.573076 -53.832745 985.81091 0 0 128
21.570463 -53.073219 985.69348 0 0 128
21.567877 -52.313873 985.57733 0 0 128
21.565273 -51.554661 985.46039 0 0 128
21.562672 -50.79565 985.34344 0 0 128
21.56008 -50.03717 985.22681 0 0 128
21.557486 -49.278576 985.11011 0 0 128
21.554924 -48.520405 984.99487 0 0 128
21.552334 -47.762012 984.87842 0 0 128
21.549751 -47.004101 984.76221 0 0 128
21.547178 -46.246346 984.64636 0 0 128
21.5446 -45.488529 984.53027 0 0 128
21.542006 -44.73119 984.41339 0 0 128
21.539421 -43.973923 984.29694 0 0 128
21.536879 -43.217079 984.18243 0 0 128
21.534302 -42.460281 984.06628 0 0 128
21.531729 -41.703758 983.95026 0 0 128
21.529167 -40.947216 983.83478 0 0 128
21.526594 -40.190887 983.71869 0 0 128
21.524008 -39.434559 983.60211 0 0 128
21.52142 -38.678665 983.48523 0 0 128
21.518829 -37.922832 983.36829 0 0 128
21.516224 -37.167191 983.25073 0 0 128
21.51362 -36.411736 983.13312 0 0 128
21.511145 -35.658497 983.02112 0 0 128
21.508602 -34.903774 982.90631 0 0 128
21.506094 -34.149704 982.79291 0 0 128
21.503597 -33.39566 982.68005 0 0 128
21.501083 -32.642178 982.56641 0 0 128
21.498587 -31.888947 982.45349 0 0 128
21.49609 -31.136095 982.34045 0 0 128
21.726242 -28.647352 992.93628 128 0 0
21.724718 -27.834253 992.85443 128 0 0
21.721251 -27.018375 992.68298 128 0 0
21.704697 -26.349943 991.91638 128 0 0
21.69594 -25.59856 991.50482 128 0 0
21.685116 -24.843184 990.9989 128 0 0
21.677525 -24.000761 990.63733 128 0 0
21.636576 -23.581221 988.76898 255 116 0
21.658035 -23.140892 989.74957 255 152 0
21.681623 -22.233067 990.81299 194 255 62
21.682617 -21.527239 990.85156 186 255 70
21.681759 -20.856621 990.80786 170 255 86
21.681686 -20.146441 990.79877 186 255 70
21.675741 -19.563835 990.52905 190 255 66
21.67358 -18.875916 990.42743 218 255 38
21.677225 -18.118755 990.58716 202 255 54
21.67565 -17.414759 990.51227 154 255 102
21.622396 -17.471014 988.12103 0 20 255
21.624174 -16.682308 988.19971 0 0 232
21.635874 -16.059645 988.73969 0 32 255
21.618666 -15.240188 987.94989 0 0 188
21.664309 -14.713057 990.04694 0 0 232
21.661373 -13.95542 989.91333 0 0 128
21.654955 -13.21424 989.62177 0 0 128
21.648008 -12.449553 989.30438 0 0 128
21.642187 -11.692682 989.039 0 0 128
21.636902 -10.933523 988.79779 0 0 128
21.632215 -10.178959 988.58429 0 0 128
21.628094 -9.4201241 988.39612 0 0 128
21.623812 -8.6628113 988.20068 0 0 128
21.619415 -7.9088936 988.00043 0 0 128
21.615557 -7.1542964 987.82458 0 0 128
21.611666 -6.3995795 987.64716 0 0 128
21.607712 -5.6432462 987.46661 0 0 128
21.603828 -4.8886685 987.28943 0 0 128
21.600473 -4.1347132 987.13641 0 0 128
21.596987 -3.3817902 986.9776 0 0 128
21.593651 -2.6277459 986.82532 0 0 128
21.590839 -1.8746063 986.69708 0 0 128
21.587868 -1.1173029 986.56085 0 0 128
21.585026 -0.36359939 986.43103 0 0 128
21.582445 0.38819188 986.31342 0 0 128
21.580427 1.1418319 986.22119 0 0 128
21.578892 1.8966895 986.15076 0 0 132
21.575247 2.6470354 985.98462 0 0 128
21.573006 3.3995452 985.8822 0 0 128
21.571306 4.1555896 985.80371 0 0 128
21.56875 4.9101076 985.68634 0 0 132
21.566811 5.660028 985.59808 0 0 132
21.563873 6.4046059 985.46539 0 0 128
21.56214 7.1622176 985.3847 0 0 128
21.560379 7.9148798 985.30383 0 0 128
21.558418 8.6689987 985.21344 0 0 128
21.555521 9.4281893 985.07867 0 0 128
21.554199 10.182323 985.01727 0 0 128
21.552843 10.934769 984.95471 0 0 128
21.55097 11.690677 984.86737 0 0 128
21.549545 12.437065 984.80322 0 0 128
21.548903 13.181197 984.77557 0 0 128
21.548868 13.930893 984.77423 0 0 128
21.54809 14.680532 984.73889 0 0 128
21.547819 15.431293 984.72632 0 0 128
21.547337 16.183147 984.7038 0 0 128
21.547413 16.933485 984.70734 0 0 128
21.54818 17.683594 984.74261 0 0 128
21.547548 18.432716 984.71405 0 0 128
21.547337 19.181946 984.70471 0 0 128
21.545464 19.938528 984.61646 0 0 128
21.537752 20.641562 984.27808 0 0 128
21.535675 21.386276 984.18457 0 0 128
21.546135 22.20986 984.63977 0 0 128
21.554041 22.930359 985.0152 0 0 128
21.556267 23.674049 985.12054 0 0 128
21.491816 23.962309 982.32239 0 0 128
21.482317 24.666069 981.90356 0 0 128
21.473314 25.351891 981.51459 0 0 128
21.463486 26.041336 981.08643 0 0 128
21.4548 26.712055 980.71851 0 0 128
21.447285 27.391546 980.40179 0 0 128
21.290661 28.563404 972.987 0 0 132
21.294024 29.307032 973.14191 0 0 128
21.292757 30.080204 973.06952 0 0 128
21.416979 30.121197 979.12262 248 0 0
21.289907 31.602003 972.91974 0 0 128
21.403587 31.43273 978.58917 255 36 0
21.396997 32.108376 978.31982 255 60 0
21.391111 32.782784 978.08417 0 0 176
21.384121 33.470333 977.79205 0 0 160
21.377245 34.135387 977.51538 255 120 0
21.276337 36.03936 972.29175 0 0 128
21.273771 36.777729 972.17303 0 0 128
21.271286 37.515549 972.05841 0 0 128
21.268785 38.253414 971.94281 0 0 128
21.266247 38.991356 971.82538 0 0 128
21.263762 39.729176 971.71033 0 0 128
21.261343 40.466816 971.59833 0 0 128
21.258968 41.204964 971.48798 0 0 128
21.256474 41.94072 971.37329 0 0 128
21.254032 42.677879 971.26019 0 0 128
21.251595 43.414852 971.14716 0 0 128
21.249098 44.150986 971.03186 0 0 128
21.246773 44.888283 970.92371 0 0 128
21.244326 45.624073 970.81061 0 0 128
21.241734 46.359859 970.69061 0 0 128
21.239136 47.096321 970.56976 0 0 128
21.236727 47.832531 970.45782 0 0 128
21.234404 48.573494 970.34692 0 0 128
21.231543 49.307423 970.21478 0 0 128
21.228123 50.048389 970.05176 0 0 128
21.224276 50.775288 969.8772 0 0 128
21.223572 51.518311 969.8407 0 0 128
21.219788 52.243816 969.66968 0 0 128
21.217804 52.964268 969.5871 0 0 128
21.2124 53.666245 969.35474 0 0 128
21.206287 54.36414 969.09161 0 0 128
21.201508 55.097992 968.86755 0 0 132
21.199764 55.843121 968.77979 0 0 132
21.197702 56.585724 968.67834 0 0 128
21.200979 57.359398 968.80908 0 0 128
21.199924 58.107998 968.75092 0 0 128
21.19762 58.842014 968.64325 0 0 128
21.195526 59.577068 968.54474 0 0 128
21.193823 60.314899 968.46277 0 0 128
21.191401 61.047653 968.34998 0 0 128
21.188915 61.779919 968.23438 0 0 128
21.186638 62.513332 968.12769 0 0 128
21.184214 63.244987 968.01508 0 0 128
21.181772 63.974358 967.90338 0 0 128
21.179369 64.704742 967.79254 0 0 128
21.176874 65.435524 967.67688 0 0 128
21.174284 66.166901 967.55597 0 0 128
21.171722 66.89801 967.43646 0 0 128
21.169212 67.630066 967.3186 0 0 128
21.166704 68.361107 967.20142 0 0 128
21.164267 69.092445 967.08722 0 0 128
21.161856 69.823586 966.97437 0 0 128
21.159433 70.554131 966.86121 0 0 128
21.157015 71.284599 966.74823 0 0 128
21.154583 72.015472 966.63403 0 0 128
21.152088 72.745743 966.51703 0 0 128
21.149603 73.475983 966.40045 0 0 128
21.147158 74.205681 966.28607 0 0 128
21.144701 74.935165 966.1712 0 0 128
21.142241 75.664406 966.05609 0 0 128
21.139687 76.39415 965.93585 0 0 128
21.13702 77.122368 965.81128 0 0 128
21.134405 77.850685 965.68896 0 0 128
21.131744 78.577919 965.56512 0 0 128
21.129164 79.304825 965.44531 0 0 128
21.12674 80.033112 965.33185 0 0 128
21.124767 80.762878 965.23901 0 0 128
21.122774 81.492729 965.1449 0 0 128
21.120731 82.222488 965.04834 0 0 128
21.118616 82.951416 964.94873 0 0 128
21.116707 83.680763 964.85883 0 0 128
21.114893 84.410583 964.77307 0 0 128
21.112844 85.139198 964.67664 0 0 128
21.110989 85.868332 964.58905 0 0 128
21.109333 86.597755 964.51111 0 0 128
21.108288 87.329102 964.46143 0 0 128
21.10932 88.067192 964.50867 0 0 128
21.110979 88.807648 964.58478 0 0 132
21.114779 89.55275 964.76355 0 0 132
21.118677 90.298592 964.94684 0 0 132
21.12517 91.057716 965.24677 0 0 128
21.279926 92.495697 972.28522 0 0 128
22.455343 -88.994598 991.43768 0 0 128
22.452448 -88.223122 991.31464 0 0 128
22.449663 -87.454079 991.19543 0 0 128
22.446775 -86.684555 991.07172 0 0 128
22.44413 -85.916756 990.95844 0 0 128
22.441391 -85.149101 990.84064 0 0 128
22.438583 -84.381348 990.71991 0 0 128
22.435738 -83.613602 990.59747 0 0 128
22.432934 -82.846199 990.47687 0 0 128
22.430147 -82.078827 990.35712 0 0 128
22.427271 -81.3116 990.23322 0 0 128
22.424454 -80.544846 990.11188 0 0 128
22.421646 -79.77816 989.99091 0 0 128
22.418779 -79.012077 989.86713 0 0 128
22.415968 -78.246269 989.74579 0 0 128
22.413141 -77.480598 989.62366 0 0 128
22.410332 -76.715065 989.50244 0 0 128
22.407572 -75.949722 989.38342 0 0 128
22.404808 -75.184334 989.26428 0 0 128
22.402052 -74.419579 989.14526 0 0 128
22.399305 -73.654922 989.02673 0 0 128
22.396568 -72.890419 988.90857 0 0 128
22.393839 -72.126045 988.79077 0 0 128
22.391109 -71.361824 988.67291 0 0 128
22.388374 -70.597801 988.55487 0 0 128
22.385664 -69.834297 988.43768 0 0 128
22.382988 -69.07106 988.32208 0 0 128
22.380346 -68.308098 988.20789 0 0 128
22.377705 -67.545174 988.09375 0 0 128
22.375029 -66.782127 987.97815 0 0 128
22.372301 -66.01931 987.86023 0 0 128
22.369579 -65.256958 987.74237 0 0 128
22.366835 -64.494774 987.62347 0 0 128
22.364132 -63.732727 987.50647 0 0 128
22.361425 -62.97094 987.38922 0 0 128
22.358702 -62.209049 987.2713 0 0 128
22.355995 -61.447392 987.15411 0 0 128
22.353312 -60.686108 987.03784 0 0 128
22.350595 -59.924934 986.9201 0 0 128
22.347887 -59.163864 986.80267 0 0 128
22.345177 -58.403297 986.68512 0 0 128
22.34244 -57.642696 986.56641 0 0 128
22.339746 -56.882065 986.44965 0 0 128
22.337048 -56.121838 986.33258 0 0 128
22.33437 -55.361919 986.21637 0 0 128
22.331671 -54.602039 986.09924 0 0 128
22.32896 -53.84243 985.98151 0 0 128
22.326273 -53.082577 985.86493 0 0 128
22.323589 -52.323032 985.74835 0 0 128
22.3209 -51.563522 985.63165 0 0 128
22.318224 -50.804749 985.51538 0 0 128
22.315525 -50.045918 985.39801 0 0 128
22.312832 -49.287003 985.28101 0 0 128
22.310183 -48.528526 985.16589 0 0 128
22.307514 -47.770412 985.04987 0 0 128
22.30481 -47.012051 984.93225 0 0 128
22.302151 -46.254356 984.81653 0 0 128
22.299479 -45.496281 984.70038 0 0 128
22.296806 -44.738861 984.58405 0 0 128
22.294117 -43.981586 984.46692 0 0 128
22.291479 -43.224354 984.35205 0 0 128
22.288816 -42.467533 984.23615 0 0 128
22.286154 -41.710854 984.12012 0 0 128
22.283482 -40.954277 984.00366 0 0 128
22.280815 -40.197857 983.88739 0 0 128
22.278133 -39.441349 983.77051 0 0 128
22.275438 -38.685326 983.65302 0 0 128
22.272753 -37.929295 983.53583 0 0 128
22.270054 -37.173443 983.41815 0 0 128
22.267366 -36.417976 983.30084 0 0 128
22.264721 -35.663261 983.1853 0 0 128
22.262159 -34.909382 983.07349 0 0 128
22.259533 -34.155289 982.95868 0 0 128
22.256954 -33.401127 982.84607 0 0 128
22.254318 -32.64724 982.73083 0 0 128
22.251734 -31.894075 982.61786 0 0 128
22.249073 -31.140356 982.50159 0 0 128
22.246601 -30.387241 982.39355 0 0 128
22.244091 -29.635319 982.28381 0 0 128
22.241604 -28.882988 982.17505 0 0 128
22.463352 -26.308294 992.00427 128 0 0
22.456148 -25.542122 991.6745 128 0 0
22.447908 -24.779083 991.29907 128 0 0
22.439251 -23.986004 990.90411 128 0 0
22.228588 -25.118284 981.60577 0 0 128
22.413462 -23.027304 989.76581 255 188 0
22.42705 -22.22201 990.35504 255 252 0
22.438038 -21.432081 990.82941 202 255 54
22.22961 -22.21204 981.65411 128 0 0
22.245687 -21.643862 982.36444 128 0 0
22.423464 -19.550945 990.18195 244 0 0
22.423752 -18.839285 990.19049 198 255 58
22.43178 -18.039831 990.53546 202 255 54
22.42523 -17.370728 990.24567 158 255 98
22.374523 -17.441238 988.04895 0 20 255
22.376598 -16.684666 988.1394 0 40 255
22.377911 -15.901811 988.19476 0 48 255
22.385666 -15.26972 988.54266 0 0 176
22.378353 -14.45806 988.21594 0 28 255
22.375101 -13.743354 988.07428 0 0 160
22.420071 -13.2104 990.07324 0 0 128
22.414364 -12.460265 989.82239 0 0 128
22.407324 -11.702809 989.51215 0 0 128
22.401318 -10.940132 989.24707 0 0 128
22.395761 -10.183202 989.0022 0 0 128
22.390846 -9.4274483 988.78564 0 0 128
22.387144 -8.6669598 988.62219 0 0 128
22.382191 -7.9095316 988.40375 0 0 128
22.378231 -7.1544099 988.22931 0 0 128
22.373745 -6.3985772 988.03149 0 0 128
22.369631 -5.6436453 987.85016 0 0 128
22.365894 -4.8890815 987.68542 0 0 128
22.361977 -4.1349759 987.51282 0 0 128
22.358324 -3.3809197 987.35181 0 0 128
22.354704 -2.6255107 987.19196 0 0 128
22.351791 -1.8703707 987.06329 0 0 128
22.348314 -1.1179873 986.91016 0 0 128
22.345829 -0.36205748 986.80011 0 0 128
22.342896 0.38925859 986.67102 0 0 128
22.340252 1.1442649 986.55402 0 0 128
22.337893 1.8991179 986.44958 0 0 128
22.33601 2.6524918 986.36639 0 0 128
22.33322 3.4041996 986.24329 0 0 128
22.330738 4.1569958 986.13367 0 0 128
22.328299 4.9109221 986.02557 0 0 128
22.326063 5.6616311 985.92712 0 0 128
22.323641 6.4139547 985.81995 0 0 128
22.321484 7.1658678 985.72455 0 0 128
22.319887 7.9191151 985.65363 0 0 128
22.318169 8.6736593 985.57697 0 0 128
22.315805 9.426897 985.47186 0 0 128
22.313564 10.178597 985.37256 0 0 128
22.311987 10.933974 985.30164 0 0 128
22.310898 11.685028 985.25336 0 0 128
22.309994 12.432208 985.21442 0 0 128
22.309174 13.182624 985.17816 0 0 128
22.308367 13.93344 985.14246 0 0 128
22.307543 14.681298 985.10681 0 0 128
22.308075 15.434329 985.12976 0 0 128
22.307852 16.184277 985.12018 0 0 128
22.307747 16.932938 985.11609 0 0 128
22.307255 17.679686 985.09552 0 0 128
22.307976 18.428957 985.12811 0 0 128
22.307205 19.183374 985.09271 0 0 128
22.30302 19.908037 984.91541 0 0 128
22.297974 20.651192 984.6936 0 0 128
22.300102 21.403946 984.78772 0 0 128
22.301624 22.145506 984.85876 0 0 136
22.31093 22.891672 985.27496 0 224 255
22.245466 23.182076 982.52405 0 0 128
22.234953 23.88246 982.07556 0 0 128
22.226217 24.577053 981.70856 0 0 128
22.216131 25.276741 981.27966 0 0 128
22.039394 26.319399 973.28589 0 0 132
22.044636 27.032526 973.53143 0 0 132
22.04031 27.819225 973.32074 0 0 132
22.043127 28.581177 973.43854 0 0 132
22.043562 29.359852 973.44275 0 0 128
22.041021 30.106977 973.32666 0 0 128
22.038998 30.861837 973.23022 0 0 128
22.036768 31.612949 973.12592 0 0 128
22.034439 32.351364 973.02252 0 0 128
22.139637 32.047497 978.18188 255 100 0
22.134142 32.721973 977.9718 255 112 0
22.125696 33.400845 977.6283 255 144 0
22.024141 35.306427 972.56354 0 0 128
22.021519 36.044682 972.44659 0 0 128
22.018917 36.783451 972.33026 0 0 128
22.016367 37.521675 972.21643 0 0 128
22.013777 38.25983 972.10071 0 0 128
22.011162 38.997803 971.9837 0 0 128
22.008608 39.7355 971.86963 0 0 128
22.006094 40.47308 971.75726 0 0 128
22.003658 41.211239 971.64801 0 0 128
22.001129 41.947891 971.53522 0 0 128
21.998676 42.685478 971.42523 0 0 128
21.996038 43.42178 971.30756 0 0 128
21.99362 44.15892 971.19916 0 0 128
21.991051 44.894978 971.08441 0 0 128
21.988348 45.630188 970.96393 0 0 128
21.98546 46.365082 970.83521 0 0 128
21.982824 47.10117 970.7171 0 0 128
21.97978 47.838917 970.57928 0 0 128
21.976257 48.576839 970.41949 0 0 128
21.973307 49.311588 970.28735 0 0 128
21.966806 50.053101 969.98938 0 0 128
21.965641 50.783451 969.9408 0 0 132
21.966595 51.527149 969.98065 0 0 128
21.963503 52.256107 969.84509 0 0 128
21.959219 52.967266 969.66614 0 0 128
21.955185 53.669407 969.50433 0 0 132
21.947357 54.356037 969.1792 0 0 128
21.938305 55.0765 968.77612 0 0 156
21.931543 55.811886 968.46783 0 0 136
21.937551 56.578217 968.72418 0 0 140
21.942848 57.357075 968.93964 0 0 128
21.941578 58.111858 968.86945 0 0 128
21.939854 58.851067 968.78876 0 0 128
21.937981 59.588467 968.70227 0 0 128
21.936525 60.32774 968.63354 0 0 128
21.934189 61.059738 968.52917 0 0 128
21.931402 61.790741 968.40466 0 0 128
21.928886 62.523743 968.29102 0 0 128
21.926397 63.255077 968.17975 0 0 128
21.923826 63.985847 968.06488 0 0 128
21.92124 64.715286 967.9502 0 0 128
21.918568 65.445671 967.83063 0 0 128
21.916008 66.177437 967.71521 0 0 128
21.913418 66.909378 967.59802 0 0 128
21.910793 67.641335 967.47906 0 0 128
21.908266 68.37294 967.36469 0 0 128
21.905714 69.104202 967.24933 0 0 128
